# .PCD v0.7 - Point Cloud Data file format
VERSION 0.7
FIELDS x y z
SIZE 4 4 4
TYPE F F F
COUNT 1 1 1
WIDTH 338
HEIGHT 1
VIEWPOINT 0 0 0 1 0 0 0
POINTS 338
DATA ascii
-0.006335304584 3.500149488 0.2817230523
0.01088945381 3.654088974 0.7599278688
0.02340027131 3.814231157 1.252480507
0.02555224113 3.975660563 1.753221393
0.005452998448 4.147717953 2.280229807
-0.02043084428 4.31490612 2.789428234
0.005808906164 4.483466625 3.308623791
0.02019296587 4.631800175 3.759374619
4.32250381e-05 4.800197124 4.268459797
0.5313657522 3.577504873 0.5644528866
0.516741395 3.722732544 0.9876875877
0.5363316536 3.872521162 1.443672776
0.5308381915 4.04502058 1.970989823
0.5056924224 4.208343506 2.470458508
0.4970962405 4.360516071 2.938281536
0.5255148411 4.523740768 3.445129871
0.5122779608 4.664611816 3.880027056
0.5164974332 4.849942207 4.446847439
4.962156296 3.596889019 0.623030901
5.023272991 3.765320063 1.129932165
5.077561378 3.897352457 1.537982941
5.079425812 4.067092896 2.060740232
5.004580021 4.229581356 2.551472664
4.913348675 4.402935982 3.08860302
4.909798622 4.575276375 3.617233992
4.919959068 4.678888321 3.931989908
4.931288719 4.855777264 4.469760418
5.442786217 3.591955662 0.6069636345
5.508125782 3.759442806 1.112739682
5.549459457 3.902515411 1.553839207
5.52909708 4.080437183 2.098210096
5.512470245 4.232935905 2.562507153
5.588174343 4.387981415 3.0445292
5.678509712 4.556262016 3.555174589
5.749392986 4.673361301 3.908059597
5.633807182 4.840910435 4.416624546
6.040826321 3.606797934 0.6587512493
6.030476093 3.764691114 1.131258965
6.044195652 3.912892342 1.587909698
6.025306225 4.078464508 2.095719814
6.038303375 4.263318539 2.661936522
6.027788639 4.418735981 3.137671471
6.011769772 4.568209648 3.591858625
6.042435169 4.685293674 3.954763412
6.065107822 4.849708557 4.450198174
6.268535614 3.533186436 0.478859961
6.547523022 3.776396275 1.177802086
6.508160591 3.913230896 1.597146988
6.499480247 4.078928947 2.105533838
6.533925533 4.259051323 2.654803276
6.522558212 4.423355579 3.161245346
6.511948109 4.562712669 3.583507538
6.510417938 4.684427261 3.949988842
6.491441727 4.857307434 4.469175339
7.016163826 3.715445518 0.986070931
7.021739483 3.848861694 1.392927885
7.020172596 4.022880554 1.929691076
7.012242794 4.186136246 2.432938814
7.029951096 4.34667635 2.925017118
7.016917229 4.498007774 3.391465187
7.01261425 4.658180714 3.869145393
6.991900444 4.858467579 4.472409248
7.535890102 3.729567528 1.026827931
7.497308731 3.869502068 1.458969235
7.523487568 4.03583765 1.970717907
7.499475479 4.192828655 2.456372499
7.539933681 4.367414951 2.991746187
7.507087231 4.52718544 3.479319096
7.517841816 4.659477711 3.876407385
7.550986767 4.858736038 4.466701984
7.975158691 3.739004135 1.060153246
8.009886742 3.866597176 1.451211333
7.995408058 4.039749146 1.987046123
8.012829781 4.212071896 2.520166636
8.028459549 4.373604774 3.010181665
7.984462261 4.544570923 3.527367115
8.037427902 4.667180538 3.897110701
8.015773773 4.854781151 4.463160038
8.528778076 3.756732225 1.122998714
8.513731003 3.902044296 1.574055433
8.516764641 4.07195282 2.100390911
8.565113068 4.235519409 2.601489544
8.536063194 4.398402214 3.101583958
8.506533623 4.568024158 3.61118269
8.552594185 4.681511879 3.956346035
8.503637314 4.858987808 4.484390736
9.040825844 3.742168427 1.077718258
9.035865784 3.886677027 1.522312522
9.054398537 4.047913074 2.024523973
9.035961151 4.22562027 2.566308022
9.04960537 4.372015953 3.017551899
9.032642365 4.550955772 3.563076258
9.066514015 4.676063538 3.935728073
8.992963791 4.856324673 4.473237514
9.484535217 3.745298147 1.085931063
9.500908852 3.874720812 1.485852242
9.50469017 4.055543423 2.044072151
9.484121323 4.208297253 2.512519121
9.49708271 4.375191212 3.026993036
9.496772766 4.544986248 3.54275775
9.47879982 4.673876286 3.927147627
9.521399498 4.857540607 4.47527504
1.115220785 3.594261169 0.6030121446
1.025242925 3.756144285 1.086444855
1.022172451 3.909945488 1.556236506
1.013768077 4.068985939 2.043406725
1.036683559 4.24123621 2.573357821
1.019356251 4.394382477 3.050200939
1.0337044 4.554638386 3.546658993
0.9896054864 4.679492474 3.929332256
1.008351922 4.85214901 4.450021267
10.07568645 3.716368914 1.002066612
9.967377663 3.928472519 1.648569107
10.01978683 4.079929829 2.1136868
10.03541756 4.253938675 2.646475554
9.990086555 4.420103073 3.155146599
10.01872444 4.569179058 3.607390881
10.02481842 4.685326576 3.952547312
9.992591858 4.851452827 4.461150646
10.53677082 3.606951475 0.6910461783
10.52377129 3.768436909 1.17139709
10.52414894 3.936053276 1.681566238
10.543643 4.098455429 2.174719334
10.52479935 4.268083096 2.693192959
10.52436924 4.411619663 3.132654905
10.52875423 4.595452309 3.687053442
10.5001955 4.710383892 4.033391476
10.47194004 4.859625816 4.483329296
11.05656624 3.614179373 0.7097718716
11.01736355 3.76772213 1.168624043
10.9973135 3.932669401 1.674387932
10.99871826 4.10209322 2.18440032
11.03439331 4.262405872 2.665952682
10.97703362 4.427221298 3.174191713
10.93381119 4.587016106 3.657017946
10.82641506 4.702212811 4.017128944
11.11500359 4.859294891 4.470121861
11.63055038 3.519057751 0.4091018438
11.57668209 3.659121275 0.8374882936
11.53324604 3.827156782 1.352465034
11.49808884 3.983113289 1.824958205
11.42562866 4.148627758 2.317960739
11.44553185 4.312497616 2.806387663
11.51624298 4.480735302 3.323538065
11.54494762 4.659351349 3.869660378
11.59566689 4.833761215 4.396814823
11.85784531 3.530379772 0.4070729911
11.94384956 3.660292149 0.8001896143
11.97568989 3.830065012 1.324335694
12.01658058 3.988228083 1.814698935
11.98200035 4.142394066 2.309402943
11.9127636 4.312635422 2.840866804
11.96003437 4.47687006 3.335974693
11.96799088 4.631467342 3.802359581
11.96670818 4.791824341 4.280029297
12.00389957 4.882423401 4.580917835
12.52484035 3.508412123 0.3483202755
12.54605103 3.667358398 0.8353286982
12.55221558 3.824326038 1.313430786
12.56212807 3.996476173 1.850365162
12.54921246 4.147699356 2.316907883
12.5521574 4.316011429 2.833648205
12.55477524 4.461430073 3.285139084
12.55995941 4.634020329 3.811070204
12.51976776 4.787395 4.294552326
12.54032993 4.871965885 4.581296921
13.01107597 3.577859879 0.5665248036
13.0092411 3.748506069 1.084147692
13.00557232 3.898550987 1.549956918
13.02696705 4.06636095 2.069544554
13.00209045 4.227617741 2.561843872
13.00555706 4.38404274 3.048673391
13.02302361 4.546881199 3.552050591
13.01505089 4.679698944 3.954856396
12.99845505 4.862727165 4.509089947
13.50552845 3.588178158 0.606646955
13.53204918 3.757027864 1.11337173
13.48927116 3.89359808 1.537622333
13.53282738 4.068383694 2.080956697
13.52053452 4.228393555 2.568665028
13.53190613 4.386747837 3.060580015
13.49816704 4.55053997 3.565999985
13.52365208 4.679426193 3.953977823
13.55746841 4.863865852 4.516047001
14.02613735 3.581068993 0.5861976147
14.01151657 3.752610683 1.10698843
13.982934 3.904572248 1.575939655
14.0020237 4.069238663 2.086292267
14.00175285 4.227563858 2.570426941
14.00327301 4.391960144 3.078082085
14.00443649 4.559356213 3.592387199
14.00436306 4.675781727 3.946443558
13.99878883 4.863326073 4.510284424
14.39287949 3.59745574 0.6522431374
14.58418179 3.759011269 1.135058641
14.57783031 3.908415794 1.598236322
14.55112267 4.073475838 2.111808062
14.5691328 4.245773315 2.644201994
14.60138416 4.397547245 3.107996702
14.58240604 4.564017296 3.614911556
14.55860138 4.669173717 3.938596964
14.5496254 4.860447884 4.507688522
1.579421639 3.576017857 0.5559464097
1.527885914 3.754151821 1.080401182
1.526358128 3.902981758 1.539361954
1.530869603 4.061983585 2.030122042
1.529014349 4.230735302 2.549240589
1.543506026 4.393226624 3.052838564
1.517610312 4.570056915 3.598056078
1.511448383 4.679172993 3.930377007
1.499379516 4.851264 4.457864285
15.03625107 3.590277195 0.6283191442
15.01099873 3.758128405 1.129822135
15.02887917 3.909252405 1.600498676
15.01714039 4.072988987 2.109294891
15.01599216 4.230072498 2.590428829
15.00977039 4.390167713 3.083835125
15.03384113 4.562763214 3.611644506
15.01634598 4.681762218 3.969168901
15.01592827 4.857156754 4.499257565
15.43717289 3.625998974 0.7340514064
15.51024818 3.771737814 1.17686224
15.51213837 3.922362804 1.643353462
15.52135944 4.092641354 2.173639059
15.51612091 4.258224487 2.681122303
15.50693035 4.420944214 3.184178114
15.52900791 4.575888634 3.652579069
15.51953316 4.695022106 4.008197784
15.5086956 4.860185623 4.51061821
15.95748425 3.688759804 0.9320516586
16.05618858 3.833380222 1.371593118
16.02995872 3.996366262 1.875094891
16.025383 4.156485558 2.371044397
16.01501274 4.312013149 2.849114418
16.00458145 4.473679543 3.346350431
16.03754425 4.637906075 3.839501143
16.03783417 4.846572876 4.472410202
16.3309536 3.68548584 0.9325349331
16.38466835 3.879635572 1.527512193
16.42279625 4.041683674 2.022998571
16.44390488 4.212117195 2.542109489
16.456007 4.377253056 3.040971518
16.43772125 4.544009209 3.551727295
16.47949791 4.669170856 3.930181742
16.43611717 4.837796688 4.473630905
17.03746033 3.80611372 1.2915169
17.02897835 3.968197346 1.79199028
17.02781487 4.110255718 2.236936808
17.02151871 4.266920567 2.709906816
17.00954437 4.408911228 3.150657177
1.928454757 3.630640745 0.7169787288
1.891418815 3.788238049 1.185085893
1.921105981 3.950079679 1.686172724
1.964510441 4.116149902 2.197736025
1.975930452 4.266199112 2.66347909
1.966112614 4.437271595 3.188147545
1.967458963 4.597903252 3.679420471
1.948731422 4.730699062 4.085822105
1.855648994 4.858751297 4.48728323
2.49597168 3.579616547 0.5640375614
2.499174833 3.755598307 1.091583729
2.539583921 3.908412457 1.56171608
2.529872894 4.078783035 2.089564085
2.527275801 4.237536907 2.576491833
2.536659002 4.394422054 3.060453176
2.505733013 4.561276913 3.572757244
2.541781902 4.674077034 3.91574645
2.513251781 4.843913078 4.442971706
3.029868603 3.574286461 0.5400747061
3.037338018 3.763575792 1.110805988
3.030759573 3.905822277 1.552639484
3.026881218 4.068306446 2.056123495
3.03109479 4.236699581 2.571460485
3.037448883 4.392250538 3.057473421
3.017487049 4.561958313 3.582461596
2.998823881 4.678907394 3.942257166
3.023427248 4.850734711 4.453555584
3.494791746 3.584256887 0.5681807399
3.516697645 3.769211531 1.131887555
3.529632092 3.905399799 1.551143765
3.493191481 4.073466778 2.072224855
3.545745373 4.230735302 2.551592588
3.515748024 4.398723602 3.077285528
3.519865036 4.554019928 3.558205843
3.509968996 4.684289932 3.95571208
3.517376423 4.849975586 4.457131863
4.028942108 3.52437377 0.3969040513
3.972782612 3.664497137 0.8152469397
3.982088327 3.838578224 1.346419454
3.964932203 4.010938168 1.88120389
4.009799957 4.158490658 2.331268549
3.994804382 4.330975056 2.85786891
3.989807129 4.492954254 3.36516571
4.005850792 4.6468606 3.838201046
3.948390961 4.849543571 4.454706669
4.62477541 3.597105265 0.6147069931
4.513656616 3.772876501 1.157880306
4.395760536 3.948158979 1.705331087
4.568461895 4.116837025 2.211090088
4.572470188 4.272143841 2.675958157
4.578374386 4.440821171 3.202206373
4.571000576 4.596127033 3.682240486
4.581679821 4.740531921 4.129504681
4.623713017 4.861561775 4.506093979
0 3.408982515 0.02345567383
0.4999974072 3.409062386 0.02506579086
0.9999948144 3.409142256 0.02667590976
1.499992251 3.409222364 0.02828602865
1.999989629 3.409302235 0.02989614569
2.499986887 3.409382105 0.03150626272
2.999984503 3.409462214 0.03311638162
3.49998188 3.409542084 0.03472650051
3.999979258 3.409621954 0.03633661941
4.499976635 3.409702063 0.0379467383
4.999973774 3.409781933 0.03955685347
5.49997139 3.409861803 0.04116697237
5.999969006 3.409941912 0.04277709126
6.499966145 3.410021782 0.04438721016
6.99996376 3.410101652 0.04599732533
7.499960899 3.410181761 0.04760744423
7.999958515 3.410261631 0.04921756312
8.499956131 3.410341501 0.05082768202
8.99995327 3.41042161 0.05243780091
9.499950409 3.41050148 0.05404791608
9.999947548 3.41058135 0.05565803498
10.49994564 3.410661459 0.05726815388
10.99994278 3.410741329 0.05887827277
11.49993992 3.410821199 0.06048839167
11.99993801 3.410901308 0.06209850684
12.49993515 3.410981178 0.06370862573
12.99993229 3.411061049 0.06531874835
13.49992943 3.411141157 0.06692886353
13.99992752 3.411221027 0.0685389787
14.49992466 3.411300898 0.07014910132
14.9999218 3.411381006 0.07175921649
15.49991989 3.411460876 0.07336933166
15.99991703 3.411540747 0.07497945428
16.49991417 3.411620855 0.07658956945
