# .PCD v0.7 - Point Cloud Data file format
VERSION 0.7
FIELDS x y z
SIZE 4 4 4
TYPE F F F
COUNT 1 1 1
WIDTH 444
HEIGHT 1
VIEWPOINT 0 0 0 1 0 0 0
POINTS 444
DATA ascii
0.07183315605 -2.812279463 -0.001991069643
0.01592084952 -2.318761349 -0.004319875035
-0.04409180209 2.749659777 0.04804643244
0.09072680026 3.271101952 0.02109321393
0.03695681691 -1.785592198 0.01154063363
0.04620699957 -1.281444907 0.003905740334
0.08643145859 -0.8283479214 -0.002352993237
0.06915250421 -0.3675736785 0.0009096846916
0.04726008326 0.0380539149 0.0003131699341
0.03757341579 0.6987804174 0.005957020447
0.004765502177 0.5757476687 0.002929179929
0.530975759 -2.869129896 0.01533721387
0.498518616 -2.261186838 0.01691151038
0.3961419165 2.116215229 0.04578073323
0.3948360085 2.662853241 0.05966097862
0.3290705085 3.162914753 0.05233187601
0.4323813617 -1.733605266 0.02434096858
0.4953886569 -1.411356688 0.02370156161
0.4742669165 -0.8403682709 0.0208820831
0.5037871003 -0.3024491072 0.02106704935
0.4633402526 0.03001140431 0.02214434929
0.4959474802 0.5938453078 0.02213158831
0.4571967423 1.145377278 0.01637546346
0.5117352605 1.40367341 0.0376166217
5.131165981 -2.252837658 0.0391003862
5.154281616 -1.588240147 0.03655609861
5.079053402 2.764408588 0.06975869089
5.151664257 -1.057261109 0.03663421422
5.154681683 -0.6736400723 0.0361248441
5.153042793 -0.1895241141 0.03468475491
5.152519226 0.1796441227 0.03848798946
5.138231754 0.5707484484 0.03963497654
5.131833553 1.060435891 0.0381806381
5.15048933 1.089616537 0.03471940011
5.127165318 2.236239433 0.05531097949
5.484119892 -2.257703781 0.03925973549
5.46416235 -1.69603622 0.03690828755
5.449037075 2.33821106 0.05920461565
5.388083458 3.08138442 0.0626007691
5.458572865 -1.377483606 0.03735203668
5.468231201 -0.8544968367 0.0357510671
5.47302103 -0.3872623444 0.03555471078
5.458773136 -0.08821798861 0.03567049652
5.461558819 0.4483434856 0.03766323626
5.449804306 0.8136559129 0.03511025012
5.490902901 1.088178277 0.04484560341
5.512417316 1.6616081 0.04523774981
5.973629475 -2.298386335 0.0402999185
5.959709644 -1.883805513 0.04233678803
5.982689857 2.213423729 0.05401802063
5.971376419 3.114265919 0.04502245039
5.956789494 -1.461641788 0.0385595113
5.967986107 -0.915584147 0.03884253278
5.996062279 -0.5167120099 0.03759759292
5.961892605 -0.03884705529 0.0392425321
5.992510319 0.4778023064 0.03958549723
5.999043941 0.7797198296 0.03690154478
5.955060959 1.272895932 0.04325582832
5.964392662 2.004894495 0.04184841365
6.489891052 -2.119409561 0.04724821821
6.473175526 -1.488929152 0.03981564939
6.401416779 2.957190275 0.06642498821
6.468803883 -1.008741021 0.04016881436
6.453778744 -0.5244345069 0.03964433074
6.480525017 -0.2444244921 0.03997908533
6.495988369 0.2946645617 0.03891881555
6.509901524 1.033700347 0.0425491035
6.469777107 0.9889673591 0.04094959423
6.487140656 1.615019202 0.04372026026
6.534361839 2.406990051 0.04270298406
6.960402489 -2.250995159 0.04348834977
6.992874622 -1.637062669 0.04312901571
6.985362053 2.794859648 0.06413365155
6.948254108 -1.12204349 0.04325231165
6.963375092 -0.7241711617 0.0406910032
6.976937771 -0.2930184603 0.04010582715
7.009676456 0.2518982291 0.04210922122
6.978854179 0.5000725389 0.04488028586
6.961455345 1.22755599 0.04309758171
6.960301399 1.976165295 0.038398996
6.987016201 2.263159513 0.05326200277
7.465007782 -2.249858379 0.04487925023
7.494718552 -1.556454659 0.04295819998
7.539168835 2.769800663 0.07029099762
7.474460602 3.118790627 0.05283449963
7.478449821 -1.193002701 0.04378835484
7.499676704 -0.7270850539 0.04356251284
7.47317791 -0.289599508 0.04192111641
7.447752476 0.1465542912 0.0420008339
7.484953403 0.5811838508 0.0478524752
7.495811939 0.9633470178 0.04677664116
7.495869637 1.98631227 0.04143514112
7.47865963 2.165589333 0.06178665534
8.045666695 -2.25652194 0.0457242839
7.989934921 -1.616061926 0.04696643725
7.986916065 2.840691328 0.07724903524
7.972882271 -1.112523437 0.04760610685
7.988151073 -0.6560047865 0.04572509229
7.989352226 -0.2871752977 0.04528970271
7.984832764 -0.0934567824 0.04537167028
8.017435074 0.7206308246 0.05655049533
7.972980976 0.9255923629 0.04535806179
8.010134697 1.525979757 0.04336213693
7.921721458 2.115488052 0.06650676578
8.388040543 -2.283547401 0.05237963423
8.457336426 -1.624307394 0.04910176992
8.467683792 2.706048727 0.05019963533
8.457826614 -1.039346576 0.05275824293
8.511897087 -0.7558735609 0.04982002825
8.414936066 -0.1320275068 0.04888524488
8.495093346 0.1881139278 0.04902344197
8.426878929 0.7266144156 0.05119518563
8.451187134 1.160419583 0.05078715086
8.502654076 1.748363256 0.04926425219
8.41349411 2.271829605 0.06424797326
8.9796772 -2.361818075 0.04935535043
9.033841133 -1.643272042 0.04915503785
9.002385139 2.6342659 0.05050323531
8.980718613 -1.012465358 0.05167640001
8.947365761 -0.6756796837 0.04974197224
9.00440979 -0.2351054251 0.04755330458
9.025527 0.3025501668 0.04832452163
8.983132362 0.557811141 0.0522756651
8.967528343 0.7009921074 0.04853061587
8.960621834 1.033047915 0.04654391855
8.973227501 2.11209774 0.06481726468
9.48043251 -2.265337706 0.04958480969
9.46812439 -1.629296422 0.04959659651
9.511939049 2.351320028 0.05625823513
9.525547028 -1.114548802 0.05197704956
9.479802132 -0.7077300549 0.05023822933
9.484487534 -0.170119375 0.04869349301
9.525269508 0.2781925201 0.048812069
9.507472992 0.6682640314 0.05055382475
9.511516571 0.7063435912 0.04949894547
9.492966652 1.458760977 0.04856483266
9.393500328 2.112474203 0.06432901323
0.9785526991 -2.704697371 0.002718650503
0.9947849512 -2.281022072 0.02164966054
0.9534656405 2.11297369 0.04107548296
1.011480808 2.800054789 0.05552058667
1.024224281 3.109234095 0.03777934983
1.036853313 -1.622145176 0.01823283173
1.009549022 -1.219189882 0.01745910756
1.01143682 -0.7562759519 0.01683818176
0.9761345983 -0.1902091354 0.01679533347
1.014597178 0.1695957333 0.02110394649
0.9765934944 0.6216612458 0.02164265886
0.984605968 1.157250047 0.02118378878
1.039017797 1.697490573 0.01977797039
9.829027176 -2.346413374 0.05026664212
10.01050758 -1.644562006 0.05047987029
9.849674225 2.616511106 0.05535712466
10.00214577 -0.9935787916 0.05271664262
9.989989281 -0.659643054 0.05255232006
9.969843864 -0.1955356747 0.05097996071
9.961385727 0.3162512481 0.05086541176
10.0001545 0.5632240176 0.05350413173
10.00721169 0.8173908591 0.05099837855
9.968195915 1.547304988 0.05028869584
10.07937527 2.11453867 0.06794219464
10.50047302 -2.349317789 0.05362192541
10.47459412 -1.601739526 0.05256740004
10.56474209 2.133087397 0.05722474307
10.53682327 -1.078574896 0.05425112695
10.51374912 -0.6829351783 0.05333117023
10.46244526 -0.1709516048 0.0532017462
10.51395321 0.2389987409 0.05393718928
10.52135754 0.6307400465 0.05431551859
10.47651196 1.058568239 0.05394387245
10.50993919 1.292483926 0.05233578756
10.37465 2.110045195 0.06296218932
11.0273304 -2.338112831 0.05669105798
11.05219364 -1.607174754 0.05634993687
10.98530674 1.719807744 0.05637497455
10.99512005 -1.01149857 0.05573541299
10.98142624 -0.6937720776 0.05534651503
10.9988575 -0.1747712642 0.05386432633
11.02219009 0.3159179389 0.05400779098
10.9971838 0.6955489516 0.05429720134
10.99048328 1.094541669 0.05489110574
10.9895277 1.333308339 0.05477914214
11.0412674 2.23129344 0.06310848892
11.57551384 -2.485864162 0.05620079488
11.53137398 -2.032974958 0.05570277572
11.50582027 1.817866445 0.05477942154
11.58253098 1.795817614 0.05729586259
11.4893589 -1.539281368 0.05567961559
11.53046989 -0.9918293953 0.05430661142
11.51290894 -0.4938370287 0.05491279438
11.5109539 -0.01611734182 0.05347066
11.50415993 0.3331972659 0.05246376991
11.51300049 0.763897717 0.05472831801
11.52206516 1.069614768 0.05578253418
11.49432278 1.378625393 0.05665451288
11.81079674 -2.834877014 0.06021931022
11.9362812 -2.276772499 0.05609628931
11.861166 1.620092392 0.05500236154
11.81143475 2.149237394 0.05467383564
11.91099834 2.665745497 0.05719331652
11.901227 -1.805760026 0.05623845011
11.88877964 -1.32405901 0.05395100266
11.84442806 -0.8817198277 0.05531197786
11.84237003 -0.3415647745 0.05383190885
11.83737183 0.1178179756 0.05306424573
11.84647751 0.5180646181 0.05365215614
11.82706356 0.8927090764 0.05527286977
11.84097481 1.246182442 0.05575635657
12.43775177 -2.879107714 0.06383432448
12.52124882 -2.306542635 0.06111000106
12.52230453 1.840619922 0.06058018282
12.51641369 2.584138155 0.06115109846
12.48181152 2.62395978 0.06823350489
12.54690456 -1.686622024 0.06073121727
12.51111507 -1.298285246 0.06028293073
12.49051762 -0.9569548965 0.05918145925
12.39459133 -0.4105668962 0.06365832686
12.38416195 0.2015420049 0.06313762814
12.29197979 0.7038280368 0.06076952815
12.47008514 1.183903337 0.05798863992
12.49363232 1.685655117 0.05865820125
12.99913597 -2.280228138 0.06374284625
12.98850632 -1.565995455 0.0617293641
13.00827312 2.540295124 0.06183360144
12.99386883 -1.053686142 0.06164817885
12.99281883 -0.4882310033 0.06662852317
13.02011681 1.140937328 0.06261675805
12.9970293 1.784747243 0.05957422033
12.9686203 1.868726254 0.06525572389
13.49299049 -2.290509939 0.06601116806
13.47459126 -1.58501935 0.06358961761
13.53210831 2.352217674 0.06588710099
13.46892262 -1.022772431 0.06412292272
13.60424614 -0.8517580628 0.06452295184
13.51902008 0.159397006 0.06436001509
13.62585831 1.052787542 0.06605355442
13.53102016 1.215650082 0.06352905184
13.47661018 1.833345294 0.06222295761
13.45755863 2.138220072 0.06428282708
13.9418354 -2.256262302 0.06683043391
13.99026299 -1.566920757 0.06577865034
14.01132965 2.123366117 0.0671685189
13.9634285 -0.9966338873 0.06536350399
13.96987534 -0.6949092746 0.06623241305
14.128685 -0.1780781895 0.06680820137
14.15919304 0.2465760112 0.06420201808
14.05207348 0.7894957066 0.06434354931
13.97164726 1.170716524 0.06387403607
13.97785473 1.720635533 0.06410032511
13.97553635 2.121775389 0.0671241954
14.48927116 -1.557089567 0.06792331487
14.44132614 -0.9374091625 0.06772619486
14.45768261 -0.4238317609 0.06893988699
14.47825718 -0.03581277281 0.06777758151
14.46278381 0.4627253711 0.06439874321
14.47732353 0.9358222485 0.06655495614
14.45328522 1.27234447 0.06636375934
14.46790886 1.484950423 0.06699118763
14.5089159 1.951996922 0.06747482717
14.64199066 2.775033951 0.08019846678
1.378592014 -2.706819773 0.00690387981
1.512878537 -2.255309105 0.02261323296
1.494834542 2.111522675 0.05303464457
1.483590961 2.804846764 0.06768301129
1.438678503 3.110847473 0.02866496146
1.501872778 -1.59465611 0.01935033128
1.514166355 -1.134221315 0.01933205687
1.507209897 -0.7032284737 0.01901578158
1.493097186 -0.2051777393 0.01908808388
1.505860448 0.3431479335 0.02160042897
1.524500251 0.7205762267 0.02532007359
1.492002964 1.33952558 0.02203107066
1.543411851 1.732471704 0.02604771405
14.94440365 -1.529403806 0.07003662735
14.974617 -0.8644817472 0.06928171962
14.96348 -0.305472225 0.06988430023
14.99709034 0.03382248804 0.06956929713
14.98395252 0.5455361605 0.06686757505
14.97505188 1.0119344 0.06830795109
14.96888447 1.384697437 0.06947489828
14.9838829 1.78102231 0.0700501278
14.9918108 2.059608221 0.07018043846
15.43358135 -1.536009431 0.07074653357
15.38342285 -0.8609597087 0.07102936506
15.46768856 -0.3001358509 0.07188070565
15.47907639 0.1004680246 0.07116511464
15.44898033 0.5664415359 0.06849018484
15.48837662 1.118345976 0.07051405311
15.47842312 1.220572829 0.07109186053
15.4585495 1.474506378 0.07177809626
15.45354843 2.543388605 0.07348876446
15.7947855 -1.038060069 0.07165302336
15.95449638 -0.2515511513 0.07367320359
15.97025013 0.2401884496 0.07255679369
15.94992256 0.620215416 0.07315397263
15.95803642 1.055776477 0.07296290994
15.95760632 1.389591813 0.07319607586
16.04830933 1.514933467 0.07334882021
15.97458172 2.337939739 0.07582248002
16.26675034 -0.2293976694 0.07409505546
16.31782913 0.3614486158 0.07448544353
16.26647758 0.8928053975 0.07477843761
16.27787018 1.264146686 0.07564104348
16.29060364 1.916326284 0.07751272619
16.26239586 2.621939898 0.07751300931
16.29395294 2.68422389 0.082884036
17.01863861 0.9867269993 0.07824520767
17.02075195 1.774117351 0.07824498415
17.06575012 2.577648401 0.07881502807
1.963016391 -2.235161066 0.02414110303
2.031574011 -1.60188818 0.02448853292
1.913727999 2.794886827 0.06496029347
1.899153948 3.144285917 0.02426994219
2.003594398 -1.109902978 0.02219088189
1.999736786 -0.6827715039 0.02095836587
2.016396999 -0.1711151004 0.02130392753
2.018382072 0.3493155241 0.02344335616
1.99037981 0.7200131416 0.02960646339
1.99142921 1.245687962 0.02605679259
2.026683569 1.889696956 0.0283994507
2.031061172 2.23249054 0.0405973196
2.507618189 -2.689887762 0.02498829737
2.50125742 -2.262346268 0.02811780013
2.521549702 2.177934885 0.04007171839
2.408736706 2.753486395 0.06858432293
2.54470253 3.11657691 0.03794215992
2.493918419 -1.637999892 0.02599834651
2.46211195 -1.316212296 0.0232486967
2.3008039 -0.7689966559 0.02187270112
2.31144762 -0.1630801708 0.02174906619
2.419194698 0.3277171552 0.02635026537
2.486518383 0.6974714994 0.02961031906
2.499241829 1.308641195 0.02538643405
2.485557556 1.823773384 0.03347799927
2.994637251 -2.303596497 0.02956148796
2.960084677 -1.811149716 0.03063608706
3.015058994 2.444126844 0.04938196763
3.056455374 2.606018305 0.04258100316
2.891200542 -1.567933798 0.02398048341
3.001163483 0.1422077566 0.02990522794
2.886159182 0.7069283724 0.03320305422
3.003343821 1.154279113 0.02794107422
3.008087158 1.474074841 0.03484739363
3.003395319 2.005162954 0.0386746116
3.485719681 -2.299827814 0.0308046937
3.475789547 -1.869647861 0.03458609432
3.502993822 2.229129314 0.04632912204
3.509443283 3.124755144 0.03829113394
3.55030489 -1.658738375 0.03579380736
3.468990803 0.1446795017 0.03491026163
3.546200037 0.7668552399 0.04354841635
3.484035015 1.099846721 0.02910931967
3.507272482 1.32289803 0.03547108546
3.507718563 2.087605953 0.04156743735
4.055191517 -2.885403156 0.03474128991
3.982545376 -2.27162981 0.03141092509
4.001029015 1.904203057 0.04460680857
3.982691288 2.766894102 0.06857080758
4.005694389 3.107100487 0.04504922032
4.018798828 -1.713059068 0.03444572538
4.19297123 -1.398463488 0.03469015658
4.052453995 0.1982424259 0.03314613923
4.020101547 0.6391510367 0.03444529697
3.987659931 1.283386469 0.03315140307
4.014666557 1.687618256 0.0390689075
4.401863098 -2.308087826 0.03497466817
4.354764462 -1.604481578 0.03594542295
4.417802334 2.718502998 0.04938178509
4.419148922 -1.119391561 0.04287624359
4.456804752 -0.6865175366 0.04089162871
4.52300024 -0.1730841994 0.036436297
4.420305729 0.3585391641 0.03564927727
4.363706589 0.540802896 0.03996901587
4.394742489 1.157552481 0.03807591647
4.445816994 1.765675545 0.04088789225
4.383221626 2.179691553 0.06620684266
0 3.408982515 0.02345567383
0.4999974072 3.409062386 0.02506579086
0.9999948144 3.409142256 0.02667590976
1.499992251 3.409222364 0.02828602865
1.999989629 3.409302235 0.02989614569
2.499986887 3.409382105 0.03150626272
2.999984503 3.409462214 0.03311638162
3.49998188 3.409542084 0.03472650051
3.999979258 3.409621954 0.03633661941
4.499976635 3.409702063 0.0379467383
4.999973774 3.409781933 0.03955685347
5.49997139 3.409861803 0.04116697237
5.999969006 3.409941912 0.04277709126
6.499966145 3.410021782 0.04438721016
6.99996376 3.410101652 0.04599732533
7.499960899 3.410181761 0.04760744423
7.999958515 3.410261631 0.04921756312
8.499956131 3.410341501 0.05082768202
8.99995327 3.41042161 0.05243780091
9.499950409 3.41050148 0.05404791608
9.999947548 3.41058135 0.05565803498
10.49994564 3.410661459 0.05726815388
10.99994278 3.410741329 0.05887827277
11.49993992 3.410821199 0.06048839167
11.99993801 3.410901308 0.06209850684
12.49993515 3.410981178 0.06370862573
12.99993229 3.411061049 0.06531874835
13.49992943 3.411141157 0.06692886353
13.99992752 3.411221027 0.0685389787
14.49992466 3.411300898 0.07014910132
14.9999218 3.411381006 0.07175921649
15.49991989 3.411460876 0.07336933166
15.99991703 3.411540747 0.07497945428
16.49991417 3.411620855 0.07658956945
0 -3.044761658 0.01627687924
0.4999974072 -3.044761896 0.01788690872
0.9999948144 -3.044762135 0.01949693821
1.499992251 -3.044762611 0.02110696584
1.999989629 -3.04476285 0.02271699533
2.499987125 -3.044763088 0.02432702482
2.999984503 -3.044763327 0.02593705244
3.49998188 -3.044763803 0.02754708193
3.999979258 -3.044764042 0.02915711142
4.499976635 -3.04476428 0.03076714091
4.999974251 -3.044764519 0.03237716854
5.49997139 -3.044764996 0.03398719802
5.999969006 -3.044765234 0.03559722751
6.499966145 -3.044765472 0.037207257
6.99996376 -3.044765711 0.03881728277
7.499960899 -3.044766188 0.04042731225
7.999958515 -3.044766426 0.04203734174
8.499956131 -3.044766665 0.04364737123
8.99995327 -3.044766903 0.04525740072
9.499950409 -3.04476738 0.04686743021
9.999948502 -3.044767618 0.04847745597
10.49994564 -3.044767857 0.05008748546
10.99994278 -3.044768095 0.05169751495
11.49993992 -3.044768572 0.05330754444
11.99993801 -3.04476881 0.05491757393
12.49993515 -3.044769049 0.05652760342
12.99993229 -3.044769287 0.05813763291
13.49993038 -3.044769764 0.05974765867
13.99992752 -3.044770002 0.06135768816
14.49992466 -3.044770241 0.06296771765
14.9999218 -3.044770479 0.06457774341
15.49991989 -3.044770718 0.06618777663
15.99991703 -3.044771194 0.06779780239
16.49991417 -3.044771433 0.0694078356
