# .PCD v0.7 - Point Cloud Data file format
VERSION 0.7
FIELDS x y z
SIZE 4 4 4
TYPE F F F
COUNT 1 1 1
WIDTH 323
HEIGHT 1
VIEWPOINT 0 0 0 1 0 0 0
POINTS 323
DATA ascii
-0.1024966687 -3.139812708 0.2858766019
-0.1248867884 -3.308097601 0.7591923475
-0.09416641295 -3.463968039 1.221634865
-0.09761052579 -3.63919282 1.736188173
-0.110511139 -3.810101032 2.244117975
-0.1205892637 -3.995803595 2.784410477
-0.1021384522 -4.158558369 3.270141125
-0.08169557899 -4.313290596 3.736096382
-0.1870321035 -4.469748497 4.200675488
0.2404878289 -3.10542798 0.2088754475
0.2973873019 -3.327367067 0.8510070443
0.3809835315 -3.463067293 1.243843675
0.3796087801 -3.631463528 1.742616653
0.3633825779 -3.796922922 2.230674028
0.3631096184 -3.962938786 2.716626644
0.3600881994 -4.127714634 3.198941469
0.3829118311 -4.286021233 3.693000317
0.3166644871 -4.474469185 4.229875565
4.991406441 -3.219976425 0.5661574006
4.900979996 -3.382040977 1.026541948
4.661766529 -3.55758214 1.553208947
4.789680004 -3.734350681 2.067139149
4.834297657 -3.89087081 2.525112629
4.83582449 -4.068413258 3.049164772
4.84250164 -4.232049942 3.527645826
4.824953556 -4.36473465 3.95614481
4.849802017 -4.489593983 4.33150959
5.404417992 -3.246480227 0.6482223272
5.357934475 -3.39124918 1.06082809
5.455091476 -3.534599543 1.481285214
5.150460243 -3.94677496 2.693531513
5.231488228 -4.076336384 3.079787493
5.32508707 -4.23242712 3.536687851
5.336521626 -4.35699749 3.937793016
5.30158186 -4.482995033 4.340454578
5.812029362 -3.307397127 0.8225641847
5.821807861 -3.455324411 1.25108552
5.818709373 -3.631551027 1.769579172
5.939894199 -3.763758898 2.158147097
6.074154854 -3.878950834 2.520852089
5.632710457 -4.318201542 3.80517149
5.744935036 -4.486088753 4.301484585
6.205050945 -3.366576672 0.9967381954
6.28357172 -3.511856556 1.421147585
6.281477928 -3.693386793 1.955901742
6.287524223 -3.860780954 2.451784134
6.40027523 -4.03397274 2.959692001
6.414054871 -4.212350368 3.483925819
6.394478798 -4.334486485 3.871021271
6.404323578 -4.486560822 4.309934616
6.918734074 -3.44934988 1.234968543
6.886260033 -3.621486902 1.74411273
6.891294479 -3.789518833 2.234722137
6.877576828 -3.947873831 2.690747976
6.860908031 -4.113052845 3.183732986
6.881673813 -4.284515858 3.697623968
6.844110966 -4.480323315 4.292454243
7.312987328 -3.431701183 1.186676502
7.327475548 -3.590516567 1.653341651
7.304002285 -3.767001152 2.172334909
7.308092117 -3.939344168 2.671904087
7.304997444 -4.105171204 3.166065693
7.290400505 -4.285748005 3.706022501
7.334932327 -4.484720707 4.303511143
7.824931145 -3.437702894 1.205987692
7.812101841 -3.606078148 1.705204487
7.824360371 -3.778951406 2.212559223
7.810283184 -3.945827723 2.699205875
7.821376801 -4.119515896 3.211589575
7.833864689 -4.279690266 3.694180965
7.846275806 -4.492958069 4.321914196
8.351281166 -3.408731222 1.126901031
8.319329262 -3.556570053 1.565649271
8.335291862 -3.72910428 2.067461252
8.348438263 -3.908558607 2.59795332
8.338799477 -4.086026669 3.116336107
8.322300911 -4.261497974 3.634239674
8.350101471 -4.432435989 4.159275532
8.807255745 -3.413763285 1.132547617
8.81056118 -3.560392857 1.567368746
8.834416389 -3.742084265 2.101815939
8.805071831 -3.914739609 2.604030132
8.828876495 -4.089813232 3.123304129
8.823922157 -4.249194145 3.587558985
8.791482925 -4.430152416 4.129707336
8.816849709 -4.478360176 4.361887932
9.354405403 -3.389056444 1.063286185
9.32183075 -3.521924973 1.454141855
9.339468002 -3.709100008 2.007986069
9.348344803 -3.887411356 2.526393175
9.338356018 -4.048582554 3.004242182
9.332035065 -4.226202488 3.526092529
9.350818634 -4.372098923 3.956997395
9.326426506 -4.490441799 4.329124451
0.8431130648 -3.375153303 0.9859473109
0.8379427195 -3.510010242 1.38442421
0.8286892176 -3.70400238 1.949949861
0.8532208204 -3.855011463 2.396047831
0.8361982107 -4.028404236 2.908698559
0.843672514 -4.196005344 3.398994446
0.8628095984 -4.314350605 3.784978867
0.846228838 -4.493526459 4.29708004
9.782308578 -3.456982374 1.265476942
9.792873383 -3.609689713 1.723495364
9.786572456 -3.778351307 2.217456579
9.803368568 -3.940778255 2.689816713
9.794005394 -4.127188206 3.241754055
9.809700966 -4.284390926 3.709981441
9.778983116 -4.493945122 4.316007137
10.36371899 -3.331561089 0.9074056745
10.35756111 -3.494691372 1.379742861
10.37528801 -3.676943302 1.92050755
10.35672474 -3.828333616 2.366665125
10.34262371 -4.001327991 2.870800495
10.34147835 -4.168566227 3.369636774
10.35346222 -4.308866024 3.789023161
10.32658386 -4.477660179 4.307906151
10.72667885 -3.244433403 0.6541285515
10.82854462 -3.420767307 1.159919739
10.85133839 -3.572350264 1.610227585
10.81585026 -3.742965221 2.112370014
10.84355736 -3.915880919 2.618854046
10.83509731 -4.094354153 3.144246817
10.80259895 -4.251467705 3.601658344
10.75869465 -4.428871155 4.139571667
11.37369061 -3.240697384 0.6398618817
11.33285427 -3.408712149 1.1248312
11.33217907 -3.578029633 1.623934865
11.34877586 -3.75001502 2.129008055
11.27825165 -3.901140451 2.574372768
11.19160175 -4.06957531 3.07187891
11.12375546 -4.184785843 3.410846233
11.78797245 -3.158573389 0.3914174736
11.77695179 -3.298457384 0.7938817143
11.69490337 -3.467501402 1.290167928
11.71331692 -3.635290384 1.788436294
11.85888481 -3.792631149 2.262319088
11.90118885 -3.964055061 2.772910118
11.87376022 -4.141980648 3.289836645
11.86752605 -4.309167385 3.767962456
11.84748268 -4.461609364 4.212543964
12.48903847 -3.134689808 0.322522372
12.42982006 -3.318292856 0.8592209816
12.46731949 -3.473247766 1.313820243
12.41393852 -3.65559268 1.850870132
12.39429188 -3.815944433 2.325401545
12.3799963 -3.978070259 2.802246094
12.39223194 -4.145219326 3.295970917
12.37717533 -4.305725098 3.777852297
12.30373478 -4.472421646 4.267558575
12.8426342 -3.171784639 0.4318776429
12.84123135 -3.30052495 0.8068243265
12.82080269 -3.46780777 1.297495008
12.82640743 -3.657002687 1.855060101
12.82737255 -3.804102659 2.288273573
12.83743954 -3.980823278 2.807374954
12.83599949 -4.148902893 3.306504011
12.82837582 -4.309875011 3.78176713
12.80630302 -4.502125263 4.332322598
13.31901932 -3.222949028 0.5825706124
13.31852818 -3.400818348 1.102966547
13.28606606 -3.554775476 1.557583451
13.32426167 -3.739597321 2.100667
13.31120872 -3.904821157 2.584385633
13.31281567 -4.07515049 3.09653616
13.31346893 -4.253118515 3.613606453
13.35517502 -4.39019537 4.023646355
13.30032635 -4.505644321 4.37656641
13.77935696 -3.229830503 0.6062609553
13.85134506 -3.410776377 1.135554433
13.79833508 -3.54981637 1.542178035
13.80094528 -3.73420167 2.090567827
13.84597301 -3.907996178 2.601751328
13.8144989 -4.078637123 3.110386133
13.81973362 -4.247647285 3.602149963
13.82513237 -4.409980774 4.081650257
13.86176205 -4.494759083 4.391965866
14.20231533 -3.231389523 0.6127178073
14.19948387 -3.406994343 1.126642823
14.18924904 -3.556219816 1.565119863
14.19065094 -3.730054379 2.079611301
14.19396114 -3.904459238 2.598663807
14.19266701 -4.068212509 3.07888484
14.20237446 -4.251661301 3.618011475
14.21118832 -4.421007633 4.103798866
14.18401241 -4.495065689 4.391721725
1.435319066 -3.140197039 0.3197067678
1.345587254 -3.2935462 0.759857893
1.307907104 -3.466312408 1.25538075
1.373851538 -3.64555335 1.78352797
1.358835101 -3.793909073 2.21761775
1.30768621 -3.965444803 2.723949432
1.345413566 -4.138332367 3.236994267
1.33033514 -4.29105711 3.694182158
1.326842189 -4.493447304 4.309916019
14.93332672 -3.24278903 0.6517315507
14.85056019 -3.408345938 1.132074118
14.86226368 -3.551049232 1.554773808
14.8441925 -3.732763767 2.093545675
14.84649944 -3.90144515 2.590988159
14.84762764 -4.076732635 3.110242605
14.84768486 -4.244890213 3.59879303
14.82819939 -4.409546375 4.081438541
14.83889389 -4.50731802 4.381641865
15.39965343 -3.261065245 0.7080401778
15.33110142 -3.411570072 1.143348336
15.35094833 -3.566102266 1.603873372
15.32653999 -3.743352413 2.128207445
15.3517046 -3.911273718 2.619781971
15.33288479 -4.082370281 3.131107569
15.33770752 -4.254384041 3.631565571
15.35665131 -4.422181606 4.130478382
15.41511631 -4.507976055 4.402024746
15.84425259 -3.320163965 0.8806286454
15.79858971 -3.465818405 1.306099057
15.81587696 -3.629347324 1.792240262
15.84058952 -3.789694548 2.269427299
15.8086853 -3.973947525 2.811319351
15.81732178 -4.139383793 3.303879976
15.82119083 -4.285459518 3.725473642
15.82785034 -4.496557236 4.353690147
16.23265266 -3.370961428 1.030875087
16.22506332 -3.515168905 1.45880115
16.29264259 -3.699816465 2.010330677
16.27894974 -3.859469414 2.484541178
16.26132202 -4.023557186 2.966051817
16.30248451 -4.201040745 3.487039566
16.27449608 -4.32222414 3.845773935
16.1728878 -4.493666649 4.360064983
16.99999619 -3.495514393 1.399400473
16.99225807 -3.700068712 2.013821125
16.8952198 -3.841642141 2.437912941
16.83776283 -4.015398979 2.950659752
16.71881485 -4.168897629 3.398008823
16.59828568 -4.327041626 3.855131865
16.58469391 -4.47337389 4.268918991
1.71948576 -3.31974411 0.839866221
1.750159383 -3.452711344 1.220375657
1.751777887 -3.628095388 1.738281131
1.757400393 -3.795945644 2.226043701
1.733727813 -3.973757982 2.748914003
1.751608729 -4.136998653 3.233185053
1.735369802 -4.290426254 3.692167759
1.694548607 -4.493746281 4.305171967
2.431956768 -3.214702606 0.5335944295
2.404771328 -3.396094561 1.068098783
2.418134212 -3.538883924 1.487211347
2.418697596 -3.722118139 2.026261806
2.411073446 -3.890132189 2.516444683
2.422598124 -4.060185432 3.012538671
2.398454905 -4.234491825 3.537098885
2.378398895 -4.366652012 3.966058254
2.399906635 -4.485233784 4.319246292
2.849834204 -3.217710257 0.5460131168
2.836732388 -3.38587141 1.032732844
2.834475279 -3.539090157 1.486253262
2.819062471 -3.722506046 2.01991415
2.83421278 -3.894925594 2.524333954
2.826770067 -4.06849432 3.037538767
2.825971842 -4.235211372 3.527027607
2.813922167 -4.339082241 3.896584749
2.819196463 -4.481179237 4.32514286
3.346265793 -3.210895061 0.523668766
3.340056658 -3.396985292 1.066509247
3.296263933 -3.526009798 1.448564768
3.330730438 -3.718239307 2.009944201
3.332341194 -3.885860443 2.501185894
3.321618557 -4.057918549 3.011233807
3.325679541 -4.231935024 3.52208519
3.370115995 -4.329532623 3.873200417
3.352267504 -4.491091728 4.321145535
3.816050291 -3.171316385 0.413395375
3.825936317 -3.315459967 0.8315590024
3.828130245 -3.488835335 1.338126421
3.813233852 -3.673496246 1.885284305
3.83491087 -3.827730894 2.336027145
3.833851576 -3.997164249 2.832257032
3.812562466 -4.164621353 3.325824738
3.866050482 -4.299447536 3.750968456
3.843714476 -4.491107941 4.323730469
4.154362679 -3.13328433 0.3008274138
4.197111607 -3.312259674 0.8237991929
4.209973335 -3.475795269 1.305468559
4.165646553 -3.666734219 1.866827965
4.22887516 -3.818120956 2.312710047
4.251922131 -3.984841347 2.801632643
4.262449741 -4.155498028 3.3062675
4.296370506 -4.29314661 3.731697083
4.291511536 -4.490011215 4.286976814
0 -3.044761658 0.01627687924
0.4999974072 -3.044761896 0.01788690872
0.9999948144 -3.044762135 0.01949693821
1.499992251 -3.044762611 0.02110696584
1.999989629 -3.04476285 0.02271699533
2.499987125 -3.044763088 0.02432702482
2.999984503 -3.044763327 0.02593705244
3.49998188 -3.044763803 0.02754708193
3.999979258 -3.044764042 0.02915711142
4.499976635 -3.04476428 0.03076714091
4.999974251 -3.044764519 0.03237716854
5.49997139 -3.044764996 0.03398719802
5.999969006 -3.044765234 0.03559722751
6.499966145 -3.044765472 0.037207257
6.99996376 -3.044765711 0.03881728277
7.499960899 -3.044766188 0.04042731225
7.999958515 -3.044766426 0.04203734174
8.499956131 -3.044766665 0.04364737123
8.99995327 -3.044766903 0.04525740072
9.499950409 -3.04476738 0.04686743021
9.999948502 -3.044767618 0.04847745597
10.49994564 -3.044767857 0.05008748546
10.99994278 -3.044768095 0.05169751495
11.49993992 -3.044768572 0.05330754444
11.99993801 -3.04476881 0.05491757393
12.49993515 -3.044769049 0.05652760342
12.99993229 -3.044769287 0.05813763291
13.49993038 -3.044769764 0.05974765867
13.99992752 -3.044770002 0.06135768816
14.49992466 -3.044770241 0.06296771765
14.9999218 -3.044770479 0.06457774341
15.49991989 -3.044770718 0.06618777663
15.99991703 -3.044771194 0.06779780239
16.49991417 -3.044771433 0.0694078356
