# .PCD v0.7 - Point Cloud Data file format
VERSION 0.7
FIELDS x y z
SIZE 4 4 4
TYPE F F F
COUNT 1 1 1
WIDTH 636
HEIGHT 1
VIEWPOINT 0 0 0 1 0 0 0
POINTS 636
DATA ascii
9.503841139242913627e+00 3.885892612406879332e-01 1.620395015115841386e-02
9.510207828075886383e+00 6.392819483151442050e-02 1.898659139023835610e-02
9.525040242624790210e+00 3.630287753883043034e-01 1.665308937523128988e-02
9.551228823634600573e+00 1.452111530318751509e-01 1.974009363180316556e-02
9.551348173895403804e+00 4.863331364900405629e-01 1.594224896833534161e-02
9.551442555884147367e+00 5.099059239848273417e-02 1.838014272082146711e-02
9.551478311114722786e+00 3.997423727775940017e-01 1.799209510407292698e-02
9.556022669742779030e+00 2.058030779613249095e-01 3.040038527352923250e-02
9.562108123356283684e+00 3.968398827683753960e-01 1.842914659797813964e-02
9.585752373940959359e+00 3.423277274649624835e-01 1.648061846934694569e-02
9.597567520913125705e+00 -4.960642007251797603e-02 1.834351550488417040e-02
9.608899974633178687e+00 3.415503338411631229e-01 1.787192268777623022e-02
9.611800582055233022e+00 2.990709638670701609e-01 1.937390274711818516e-02
9.614479047080639162e+00 -3.708258057009669595e-02 1.729821161420826495e-02
9.628657661132923096e+00 2.447569043276896505e-01 1.840403002333222682e-02
9.632043218009352259e+00 3.715943569850251871e-01 1.874010203522860629e-02
9.635236977873194775e+00 4.828605757782224450e-01 1.714107390664638270e-02
9.646095786365332714e+00 2.551617067979697895e-01 1.735938754546613449e-02
9.651344193328538879e+00 2.204664732771825508e-01 1.982297453892433586e-02
9.655792742746006851e+00 -5.000040355622622362e-03 1.859446904172679452e-02
9.666308570309821491e+00 3.758265260716505685e-01 1.618395922644562390e-02
9.666645947066902167e+00 1.243667494113096933e-01 1.743870366968764546e-02
9.666661841842262959e+00 4.332884153273371397e-01 1.514198752110926943e-02
9.666991103166983734e+00 2.389752638635402049e-01 1.779896380979780618e-02
9.669093254210725519e+00 2.921462827825458408e-01 1.870917184503992359e-02
9.669878145273989034e+00 5.969537610540652517e-02 1.798908849818075389e-02
9.675439676816822043e+00 3.934786441808817981e-01 1.806794934037910666e-02
9.682924358842175394e+00 3.360779890045774154e-01 1.568569940890645470e-02
9.687583961274659927e+00 1.351902927905635210e-01 1.784809800775922356e-02
9.702760016720327840e+00 4.211012372668461734e-01 1.406329737524538576e-02
9.710868694799399847e+00 3.830661769183705267e-01 1.847351745054853084e-02
9.723934678258542519e+00 1.482646853276177457e-01 1.722764688930001481e-02
9.733274374860295453e+00 2.458689302889216499e-02 1.928806913629852599e-02
9.748937368691983352e+00 4.798153231575351119e-01 1.580221681499353187e-02
9.775659738723790682e+00 -6.186267835951140409e-02 1.875980004269931639e-02
9.781421473876205752e+00 2.095638368468427937e-01 2.625227209200627770e-02
9.781395664801669554e+00 3.418519769297966304e-01 1.731613807516615283e-02
9.781580973619378838e+00 9.732762390056642898e-02 1.709868109982903145e-02
9.781800968049909173e+00 4.308253056095858180e-01 1.575088738293333596e-02
9.782616055869555183e+00 1.457352013509705946e-01 1.850647960640579986e-02
9.784139224098520771e+00 4.171418809791121313e-02 1.764116053439024334e-02
9.785639975098902710e+00 8.281181822555284955e-02 1.905468173452456310e-02
9.788422192279732315e+00 3.445378245976015580e-02 1.909951363086419968e-02
9.799581732998230876e+00 2.559195588117413878e-01 1.784122494230591660e-02
9.817247634781480770e+00 2.735804822476406439e-01 1.776469436224336479e-02
9.825882887206182303e+00 4.716953477180051424e-01 1.751651601667276320e-02
9.840218159561491262e+00 3.940298971819930496e-01 1.804480701132234882e-02
9.846260770785230321e+00 3.589803058318370016e-03 1.992463014200871602e-02
9.855711510804839648e+00 1.503825598305943978e-01 1.875388411330921462e-02
9.857673733731452614e+00 4.487632421078395217e-01 1.646273885849839497e-02
9.879130192494532281e+00 2.524965300381007416e-02 1.881766522784592000e-02
9.887525083436623063e+00 2.732527935004464559e-01 1.705069936877496445e-02
9.892691380113841859e+00 2.063652677904203592e-01 2.736160004467694945e-02
9.896471225840690167e+00 1.004297272767709220e-01 2.063123691209367561e-02
9.896827401957033032e+00 6.091765763175267107e-02 1.969803340827269017e-02
9.896947983190427678e+00 2.299197569759310333e-01 2.146258073164424018e-02
9.896953934855629242e+00 3.667179829827242332e-01 1.984541717098241287e-02
9.897084191208751491e+00 2.453217599388706274e-02 1.924961992302894748e-02
9.908041507867796582e+00 2.830724314229438043e-01 1.843778060654736178e-02
9.943514383090755970e+00 4.437505506867066574e-01 1.570384053131854835e-02
9.951054651585577560e+00 2.375816226668618289e-02 2.005269862054441521e-02
9.960121927606298442e+00 3.950011613547809719e-01 1.716956665671948851e-02
9.962340122561258227e+00 4.232241816218889618e-01 1.713103015202575158e-02
9.964995791628384225e+00 3.374403627116841914e-02 1.902069269618849451e-02
9.973958530929953881e+00 3.727860534555270111e-01 1.617280596129139214e-02
9.978590898797545350e+00 4.184851196500064541e-01 1.708397290606437219e-02
9.986644871182997818e+00 -8.131892343371161305e-03 1.997356819922209425e-02
1.001158719354947380e+01 4.197030437030428995e-01 1.697636760571024500e-02
1.001161514789672324e+01 4.531734146837425314e-02 1.739272385109465885e-02
1.001163694900610501e+01 2.482684754638886104e-01 2.009594686159104499e-02
1.001179283774670203e+01 8.721137528367219061e-02 1.832155869921167635e-02
1.001185922859405686e+01 3.216723203027300748e-01 1.903757300247984480e-02
1.001596719697853466e+01 4.754640646620325040e-01 1.690023814348624170e-02
1.002710109052874365e+01 3.835055784018615577e-01 1.745473661272092802e-02
1.002902578492216534e+01 3.594592699818571768e-01 1.894026325707022507e-02
1.003930502277173531e+01 3.008121012152407681e-01 1.701936192111459800e-02
1.004206132198413925e+01 3.667456209780132204e-01 1.742520640716938712e-02
1.004445682249455629e+01 2.384183677801677004e-01 2.000122112653143769e-02
1.004671929035338884e+01 2.936539078568243810e-01 2.042146464174905002e-02
1.006472935837375182e+01 9.967895510583665852e-02 2.057923804034060555e-02
1.008015974521571678e+01 1.109359638071591159e-01 2.051702935223161106e-02
1.009207316678620536e+01 2.405652571752605606e-01 1.984550483787109881e-02
1.009428542155595032e+01 2.642893575988629062e-01 2.078890848346899578e-02
1.011293388932959658e+01 1.048984299089944922e-01 2.090615680138330212e-02
1.011773691344706272e+01 1.526652176731967403e-01 2.425568536584105789e-02
1.012662042919111016e+01 3.143902622945315972e-01 2.062905781254716769e-02
1.012667559279241836e+01 1.211348340917516864e-01 2.035590016076008202e-02
1.012685495944891123e+01 4.674458794321965094e-01 1.655209021022549520e-02
1.012688084123556997e+01 5.323585984078825495e-02 1.945373569575412770e-02
1.012778687392464327e+01 2.807073789586793100e-01 2.163991244783168566e-02
1.013314363184863787e+01 -6.535676805806159284e-02 1.810050851708677744e-02
1.015666312168334429e+01 3.574000659198994789e-01 1.950755965404672027e-02
1.016405430179167269e+01 -1.583269511493739026e-02 1.989892329032590113e-02
1.018065525783272918e+01 -3.376070175456164640e-02 1.986540910266537674e-02
1.018429890572751084e+01 3.874348543057299921e-01 1.743212395723361952e-02
1.018590756290228683e+01 1.036646462310769207e-01 1.920757098267070195e-02
1.020705529848626547e+01 2.360394341438973032e-01 2.338727268705226986e-02
1.020942243936833016e+01 4.249481715212797828e-01 2.121659419402072838e-02
1.022023732977380206e+01 1.161567769596278527e-02 1.919941681250852961e-02
1.023964566558787936e+01 4.835248697777166371e-01 1.910005526736423959e-02
1.024167091441159450e+01 3.992026906257787333e-01 1.625828421524772721e-02
1.024169296852675792e+01 4.127081356419453617e-01 1.575512964577398256e-02
1.024190000726497551e+01 2.741634899736121733e-01 1.883761747948445309e-02
1.024231326530113328e+01 -6.007679769811061221e-02 1.969613827804846118e-02
1.024252316331009816e+01 1.539486749999337267e-01 2.629342078371205843e-02
1.024265405452197797e+01 -4.694224953392729660e-02 2.016940059279802300e-02
1.024598668716968319e+01 8.370654238176990225e-02 1.903631199652271178e-02
1.024675910946766599e+01 2.609711430996808357e-01 2.127876642510050792e-02
1.025025669304780607e+01 6.744376873533054761e-02 2.099368941386382109e-02
1.025708804350588466e+01 -3.076018054470899127e-02 2.108092867568930884e-02
1.025947790335732179e+01 2.686280877693443259e-01 2.025215011471327708e-02
1.026578038516314528e+01 4.679637705481975440e-01 1.805720116220451560e-02
1.026831371461835118e+01 -2.887184456773454061e-02 1.957770418796419415e-02
1.027927779571259848e+01 4.898559815206974220e-03 1.901677383272106642e-02
1.028172527988656881e+01 -2.126841517970744569e-02 1.903799946734778537e-02
1.028520449957169447e+01 2.167435414130528260e-01 2.608613408582364374e-02
1.029034229984454285e+01 6.636909165975572733e-02 1.940082965941040266e-02
1.029168288688487820e+01 2.197033582711640232e-01 2.947999568784548385e-02
1.029886233497248860e+01 -3.681234766497010202e-02 1.997713775602668468e-02
1.030227487837479927e+01 2.223311965363749532e-01 2.748992828180982922e-02
1.031608649894689300e+01 1.031354285193464559e-01 1.878897370172519232e-02
1.033261652841247979e+01 2.649635292289405641e-01 2.148580500469981364e-02
1.033516884651262480e+01 1.078746738416865997e-01 2.165232343397977682e-02
1.033669603120762304e+01 4.315717825725564061e-01 1.982225225220710790e-02
1.035688792183099416e+01 2.298170312980265528e-01 2.730574334421857069e-02
1.035687135783232193e+01 1.373369139074470391e-01 1.910766035512932726e-02
1.035703834786731470e+01 3.378487663608249481e-01 1.888408417289718505e-02
1.035711014018118803e+01 -4.484939025921762246e-02 2.077452207950108987e-02
1.036086236090354973e+01 5.147997787568697747e-02 1.919031160399157360e-02
1.036283654490958916e+01 -2.705134089498854172e-03 1.826821948617326358e-02
1.036484523897944854e+01 2.276958085511435539e-02 2.067439882034276949e-02
1.036670702784084597e+01 -6.361718192595895716e-02 1.734648181443647352e-02
1.036750786435121441e+01 2.639502711393364454e-01 1.844451137150440040e-02
1.039306115262830588e+01 -1.477507930055537919e-02 1.916032759202306035e-02
1.039839280284463108e+01 3.661156564111603950e-01 1.871947717241997933e-02
1.041358258179128171e+01 4.272594935292232665e-01 1.762654420564793017e-02
1.041496067037554418e+01 3.476184393307626269e-02 1.903470732477339361e-02
1.041544023082823678e+01 3.581978108567733798e-01 2.062745089318082647e-02
1.041705698716802431e+01 4.803219588915136895e-01 1.706827273119387173e-02
1.042335549526850258e+01 2.782662409538424475e-01 1.922578416913353627e-02
1.042555521545523156e+01 3.283107284164132333e-01 1.965098097477748634e-02
1.043241477359504543e+01 -1.197913750918404123e-02 1.903049592268662299e-02
1.043491342853960369e+01 1.969108302532882743e-02 2.191717584062803648e-02
1.043675917785037299e+01 1.182457498461553791e-01 1.887165154392067556e-02
1.044032083974616221e+01 6.220675053630764229e-02 1.892251745514695466e-02
1.046596260772508380e+01 4.636648205482420959e-01 1.595240478311206467e-02
1.047187559658027922e+01 1.851793443043002127e-02 2.082356616614592509e-02
1.047250056657763650e+01 4.011658619983414220e-01 2.234884133885797070e-02
1.047306102659989691e+01 1.351345875328945345e-01 1.775996297688969133e-02
1.047379156801223488e+01 2.102407507932775033e-01 2.597507274519560844e-02
1.047713330654860897e+01 3.235666577794861221e-01 1.949017269233918603e-02
1.048058794930518189e+01 2.924749314566756353e-01 2.244370122909149223e-02
1.048652465945557211e+01 -2.419569785719146923e-02 1.935881689889992763e-02
1.049019647495537377e+01 4.150068473125498314e-01 1.690541105791032450e-02
1.049186539371079796e+01 3.258752497447869878e-01 2.090525681496142874e-02
1.049397401050357281e+01 9.262842546763279394e-02 2.115791797166796662e-02
1.050663066004490709e+01 2.894623605821716739e-02 1.923496187413942238e-02
1.050780725084801048e+01 4.628048879530567983e-01 1.777154176371292110e-02
1.051073640770424511e+01 4.144144553934415998e-02 2.213677306460419547e-02
1.052572543383776171e+01 2.411331228411156824e-01 1.991345679785962858e-02
1.052912449749526935e+01 3.108261814271517376e-01 2.080201946544207869e-02
1.053052875968531588e+01 -6.366812526750062484e-02 2.072611787028207780e-02
1.053247217479740350e+01 1.197363463749871459e-01 2.197969127907066500e-02
1.054266283089820355e+01 3.994594493704006211e-01 1.919474369385471002e-02
1.054610673565274226e+01 2.270700334210020432e-01 2.425851599408970771e-02
1.054941407863080016e+01 4.810098801656391143e-01 1.859434508063018826e-02
1.055107224117815967e+01 2.152537497404671540e-01 2.669665464867990168e-02
1.056451104321583756e+01 2.498631238680003586e-01 2.075588411403147399e-02
1.056801274591917306e+01 6.083563656205299292e-02 1.948978174586289691e-02
1.057794429608541442e+01 3.371205047657195308e-01 2.012762084186490996e-02
1.058698928081378909e+01 2.548807275871873244e-03 2.144654830515729804e-02
1.058714125735262535e+01 1.324079850636758482e-01 1.886062648885290793e-02
1.058751033975777212e+01 3.619953092671985284e-01 1.811508774560422613e-02
1.058755248020179884e+01 2.875330156087598232e-01 1.966275635066498662e-02
1.060453926627190491e+01 1.113042972256295809e-01 2.175700918254091371e-02
1.061157879033289397e+01 -1.947029436423108884e-02 2.041596742320715002e-02
1.061239222855157927e+01 2.862755142279551079e-01 2.007325310907553256e-02
1.061413245444731857e+01 3.128065975224380568e-01 2.101403138233779583e-02
1.061652900022834345e+01 6.118161907470592159e-02 2.031031458046211186e-02
1.062698288776683064e+01 -5.704629960506333447e-02 2.040816257349497426e-02
1.062874420662394392e+01 3.753835198405690576e-01 2.089737328310001252e-02
1.063048243888036026e+01 4.019149643514244308e-01 2.037431707949750870e-02
1.063334765528961334e+01 2.309559875157835285e-01 2.592630848871083776e-02
1.063974541726358680e+01 3.655144655438938850e-01 2.087292635674466157e-02
1.064720968335955220e+01 4.033661525051601693e-01 1.690082503807006226e-02
1.065042603560550916e+01 4.619890057893881186e-01 1.584822960394635660e-02
1.065144109155569652e+01 7.524881878380315289e-03 1.781545868333678923e-02
1.065699062269923303e+01 4.309933399678029797e-01 1.439750053444269207e-02
1.067435371369829333e+01 5.663895779895792432e-02 1.964008382970869326e-02
1.068431809215071837e+01 2.862206532522521690e-03 1.624980227622678519e-02
1.069365300071617852e+01 -2.834343776258175726e-02 2.016155230120928593e-02
1.069816214256152520e+01 3.993678616187478214e-01 2.015921660745850774e-02
1.069958383788477896e+01 2.233252886359105294e-01 2.425642047644936683e-02
1.070206374831853680e+01 1.316912360906720980e-01 1.800239486926182020e-02
1.070214560491003652e+01 4.441466942981053823e-02 2.200619765566345920e-02
1.070226234565317291e+01 3.193866999166146692e-01 1.828194299920132132e-02
1.070253293414460138e+01 2.875047859062481725e-01 1.929254205211979739e-02
1.072395309195639257e+01 1.414007612821774895e-01 1.841007902890631764e-02
1.072551066884995308e+01 3.508086576415581082e-01 1.817212957789170191e-02
1.072714495393034895e+01 1.158688733115925407e-01 1.940420793869857691e-02
1.073136150002515166e+01 3.590124482793596861e-01 2.156217884705695365e-02
1.073283459240552240e+01 4.219257552678685741e-01 2.002247654210233957e-02
1.073433470283713476e+01 2.247538523937578914e-01 2.560802152609326088e-02
1.073694980535427845e+01 3.156237250727222943e-01 1.915043916507155192e-02
1.073915998688888429e+01 1.100773960037003812e-01 1.986104459197241684e-02
1.075011684397404998e+01 4.392644095107629543e-01 1.604146515211044011e-02
1.075313471283818778e+01 4.733137860409688535e-01 1.550490287852140242e-02
1.075484368922456468e+01 -5.184989822042233160e-02 2.145450148802862528e-02
1.075787164817083053e+01 1.234977631127684577e-01 1.832077304962389380e-02
1.075905819727108437e+01 7.249264085292370097e-02 1.739665692211943976e-02
1.076158417528441902e+01 3.161158432642968141e-01 2.102349157065733221e-02
1.076205008485414183e+01 8.403632091995703879e-02 1.981630343021464902e-02
1.077026642626676001e+01 3.517950687399727938e-01 1.851486227829175768e-02
1.077445525552415972e+01 -4.023049479374993936e-02 2.089047914822035612e-02
1.077570511925849495e+01 1.542774383257784938e-02 1.838355913528916946e-02
1.078438401295015225e+01 -5.486613017259928810e-02 1.940981018558421423e-02
1.078596590829562096e+01 4.679658516399556878e-01 1.638216238331732105e-02
1.078607197155374919e+01 6.795142487449358504e-02 2.073273677566404849e-02
1.079841291293719507e+01 3.572099192618621855e-01 2.281324979658402863e-02
1.081222063347446571e+01 6.589257402679281339e-02 1.723281143845662583e-02
1.081345357850282163e+01 2.974952478281045476e-01 2.038923389997449043e-02
1.081502991745098718e+01 2.866368325000325235e-01 2.186132678182553524e-02
1.081710383106527829e+01 1.278539314175884678e-01 2.203127007363871182e-02
1.081711719673251793e+01 2.781528910793519271e-01 1.649299049153123142e-02
1.081739287524441195e+01 4.093950172212230121e-01 1.927618419763882374e-02
1.081770994668854868e+01 -4.951710697625405500e-02 2.027357888303964878e-02
1.081834600408463842e+01 3.729582482700591339e-01 2.126656966096782120e-02
1.082407359945373670e+01 1.196851968869086513e-01 1.957692918596842802e-02
1.082611515724931905e+01 4.367593048045436133e-01 1.677553807973011790e-02
1.082823841482617233e+01 1.406911739028811510e-02 1.772693940146758546e-02
1.083260780420328651e+01 -5.319249589608335965e-03 1.919941270399266875e-02
1.083541818398905576e+01 -3.567023934597762791e-02 1.922412385758266035e-02
1.084251761950473281e+01 1.296631034673174088e-01 1.852929550563282152e-02
1.084519721519504643e+01 4.504960873189942649e-01 1.474588903811997059e-02
1.085048938878197688e+01 4.029876651991621817e-01 2.064057862172087587e-02
1.087284599903265381e+01 3.835616840622990686e-01 1.619628856227342539e-02
1.088175345431699448e+01 2.543775051322509362e-01 1.875228749554912200e-02
1.088424769026703132e+01 6.577443810569429117e-02 1.700101031243615723e-02
1.088834972908831134e+01 4.398361825443230511e-01 1.657171553178350687e-02
1.089099740399516492e+01 4.135270855527532069e-02 1.993650913205308184e-02
1.090145156184188835e+01 3.200173047959549710e-01 1.763983730824994489e-02
1.090321364681266125e+01 9.995848708058953369e-02 1.787894470337500485e-02
1.090736851104600191e+01 1.086407560326459187e-01 2.078483904211592820e-02
1.092157280752802251e+01 1.220658939238314783e-01 1.730626591403394005e-02
1.092827145607302519e+01 1.277803218339203795e-01 2.216133068039388698e-02
1.092882304146774430e+01 2.496388048157400230e-01 1.714101445953193636e-02
1.093024166095201721e+01 3.998385126180279969e-01 2.038727325963747561e-02
1.093223389345093821e+01 9.906391536103252571e-02 1.729752256435549557e-02
1.093247154242388142e+01 2.739445053847475164e-01 1.954423684618124268e-02
1.093252748670709096e+01 1.453867216713915743e-02 1.983260561910964864e-02
1.093257584327884224e+01 3.414688363463169729e-01 1.800370010023259748e-02
1.093592225905908855e+01 3.090020687680070655e-01 2.095910665696651409e-02
1.093775634611880143e+01 -5.548750971501194978e-02 1.794062427545668748e-02
1.094534206443289293e+01 4.114611707303439392e-01 1.641975874777373834e-02
1.095294202768336334e+01 3.582248083060977084e-01 1.791948102599261877e-02
1.095743041607856050e+01 5.379506351969463168e-02 1.922080281284827691e-02
1.096111326387980967e+01 8.135519744455074753e-03 1.877064911726290808e-02
1.096380563376653861e+01 4.567699122246859922e-01 1.972792052648435213e-02
1.097351948241367658e+01 2.717616014616575093e-01 2.136752487262141842e-02
1.098393215098508335e+01 3.602943448025650586e-01 1.928247896312376697e-02
1.098654558954603111e+01 2.790446933476002922e-01 1.692243400973483802e-02
1.099140482169841704e+01 3.320008470612372253e-01 1.880194171605272663e-02
1.099373702935534247e+01 2.293076928806724313e-01 2.232656293692439342e-02
1.100075723711069742e+01 2.173260234700065407e-01 2.085230859557307692e-02
1.100791872675905481e+01 3.078048249992726068e-02 1.957177365725217000e-02
1.101040736437547807e+01 2.120731206187196072e-01 2.717413633606863277e-02
1.101403011267275289e+01 2.980201406173961787e-01 2.267284653259474952e-02
1.101743286970359392e+01 4.691865647928029071e-01 2.295944002494649389e-02
1.102023851831612866e+01 1.170894647408146916e-01 1.943609759274268767e-02
1.102485628599839629e+01 -4.016148334520009550e-02 1.959614542228714507e-02
1.104328031434051383e+01 5.328593960962738074e-02 1.992081967573748613e-02
1.104723270566677940e+01 4.297848510978839465e-01 2.046632646915589465e-02
1.104726602272625335e+01 2.095245707118070788e-01 2.754736739339290474e-02
1.104730410193393553e+01 3.116803539088349728e-01 2.010838573855874140e-02
1.104730187140690134e+01 -6.721503232679458539e-02 1.369484884445375944e-02
1.104746536953676106e+01 1.506234366586035600e-01 2.028701738592633697e-02
1.104757734691845528e+01 -6.621088248881593086e-03 1.899772655921078829e-02
1.105054502154278850e+01 3.123971283585649100e-02 1.699199579180816350e-02
1.106118466228679154e+01 2.555678315953590837e-02 1.794097339978578676e-02
1.106533721389095604e+01 4.003044499207725759e-01 1.653383631245743807e-02
1.106650278146662814e+01 2.606489825738658728e-01 2.156841956766766821e-02
1.107299651422018982e+01 -4.811761669150171374e-03 1.744877183254251590e-02
1.107547311504601950e+01 1.335500334796536556e-02 2.083860410695954901e-02
1.108839565517740233e+01 4.688038437896970834e-01 2.126638274122469308e-02
1.109163063459993737e+01 8.688971638955751697e-02 1.777471166784050371e-02
1.109168472943432171e+01 3.123476982518171852e-01 1.947678763479168684e-02
1.109505200371715894e+01 3.993575699676248369e-01 1.839326605404462134e-02
1.109723701243077798e+01 4.403984253492738143e-01 1.736343487960088222e-02
1.110160359728994273e+01 2.842118664340786416e-01 2.142918223531273259e-02
1.110367740071699316e+01 4.080219770514358357e-01 1.151971114280502667e-02
1.110429331636599137e+01 -1.211455463670979560e-02 2.028504800422967214e-02
1.110912556973333487e+01 2.874297513217777267e-01 2.042537485528083535e-02
1.111774245733140987e+01 1.194716787836620775e-01 1.863153090731416162e-02
1.112410290701245508e+01 4.517933090227218562e-01 1.628733296376273787e-02
1.112935355571883811e+01 2.276520255855329078e-01 1.700871787156875425e-02
1.113359086390670072e+01 4.181510971081581762e-01 1.971210362788396175e-02
1.113370366431898084e+01 3.163680446261968315e-02 1.965373101425316876e-02
1.113585047030043107e+01 -1.147985890986147339e-02 1.725379460011737531e-02
1.113653162761863946e+01 4.335062019570836700e-01 2.066269763605090709e-02
1.113884174059779397e+01 4.676020348554276729e-01 1.329324304952383268e-02
1.114025831986186255e+01 -3.918475801383117241e-02 1.824642507773543976e-02
1.114140610879944937e+01 4.592380672949456649e-02 1.961303648133510408e-02
1.114311782876202983e+01 4.648377713051399795e-01 1.035259453791678719e-02
1.114608224863821206e+01 4.847007894015297746e-01 1.666892318148462115e-02
1.114902359477084559e+01 4.151467369032116328e-02 1.861751842048282868e-02
1.115027728253845218e+01 3.617693153404433759e-01 1.630318729470018463e-02
1.115218003872499786e+01 1.257721689734521420e-01 1.900157781757724068e-02
1.115254102157861382e+01 2.583827555073664461e-01 1.494683196604097708e-02
1.115344472443686641e+01 3.137332400652810827e-01 2.074146511185056413e-02
1.115734793258431345e+01 3.459748256597248717e-01 1.580992736803701892e-02
1.115843133688455424e+01 4.213929389908055434e-01 1.865261572725940287e-02
1.116109258654211978e+01 5.587700902191296629e-03 1.861861856768865647e-02
1.116231575360157358e+01 2.416857953816668736e-01 1.590993604727868049e-02
1.116233795205480739e+01 -9.402843481243965823e-03 1.814219922396307499e-02
1.116265219072721315e+01 9.619570469604668550e-02 1.314164294836850377e-02
1.116279880417232562e+01 3.711779976347510668e-01 1.869440851978460688e-02
1.116389792138616954e+01 4.337737401120730363e-01 1.569117318243420239e-02
1.116486196077441839e+01 3.093663401398911716e-01 1.631451375004837334e-02
1.117114520763391106e+01 4.155507741270946798e-01 2.203618944914811917e-02
1.117202378490393677e+01 -1.397428707252102061e-02 1.860517897752796829e-02
1.117303620019494304e+01 3.561697096059489587e-01 1.477206307038445715e-02
1.117429558407674328e+01 -4.670892746708961429e-02 1.716918534228382281e-02
1.118131804820531983e+01 4.306752642201617798e-01 1.612658647340315526e-02
1.118231786942920891e+01 2.273025525246706313e-01 1.830364803920433991e-02
1.118448757322155451e+01 4.577852324721150001e-01 1.608622471287048106e-02
1.118488980405078870e+01 1.453671047706171227e-01 1.887445357672574292e-02
1.118898377985032333e+01 -6.241272784858459960e-02 1.372134146560155532e-02
1.119353120912035493e+01 -4.440778730029777688e-02 1.905772285514796549e-02
1.120239475300291865e+01 2.361106895023901697e-01 1.481107343849032837e-02
1.120480243157827083e+01 5.063693247435099160e-02 1.696266876979114768e-02
1.121131180142314143e+01 4.729957104224830067e-01 1.647189921329692691e-02
1.121237083206681540e+01 2.658147684304448255e-01 2.206999801721317572e-02
1.121420208305705835e+01 4.658378791830224408e-01 1.305253943594418542e-02
1.121633218541491672e+01 3.340703322405463860e-01 1.709821305398157021e-02
1.121728784203993712e+01 4.081034443634962705e-01 1.359488453264525581e-02
1.121825774075669102e+01 3.806716972995759507e-01 1.655222896966346280e-02
1.122102279428136917e+01 -7.433922198765916846e-03 1.795103950245292845e-02
1.122393669094485347e+01 2.853349427493131474e-01 1.859302706927539600e-02
1.122665085693911635e+01 2.362836772548015385e-01 1.473277453939712128e-02
1.123335525444800531e+01 1.187009840809463562e-01 1.777102245568768640e-02
1.123435965572772588e+01 4.445197543129067452e-01 1.740536515710091464e-02
1.123804252503947154e+01 4.341830759099850057e-01 1.496401983405415415e-02
1.123993440359879159e+01 3.966278870157503578e-01 1.304666485569949685e-02
1.124079156450258843e+01 3.414891901524665929e-01 1.066323084481732991e-02
1.124198879515928340e+01 1.183694904511688323e-01 1.823267437962540483e-02
1.124757170911564508e+01 2.291039473086124434e-01 1.857946883130025262e-02
1.124776962620159182e+01 -3.724204930942472125e-02 1.692206296727002957e-02
1.125039811299088122e+01 4.768494388984466648e-01 1.438871434245344444e-02
1.125575714326140897e+01 2.142609315319112806e-01 1.856962168058702567e-02
1.126144138317783749e+01 3.526955169604665263e-01 1.986230841075706244e-02
1.126419202900431138e+01 -3.541456118877644305e-02 1.735509562983995890e-02
1.126763257578432942e+01 2.815601418313979920e-01 2.138647592296240296e-02
1.127247854069071309e+01 -2.255693410621931530e-02 1.877920081772002647e-02
1.127302729717921359e+01 2.932459132069830665e-01 1.305509972815639685e-02
1.127402276761980815e+01 2.259981162187987558e-01 2.679886936486206711e-02
1.127658676774888136e+01 4.529787767440021096e-01 1.823701199804374923e-02
1.127702535878467138e+01 1.412416825869586279e-01 1.565229106027817008e-02
1.127740272663193366e+01 2.738592666183733426e-01 1.696853683266818374e-02
1.127763829985793897e+01 8.717205219342127887e-02 1.961642312185966214e-02
1.127764793520417719e+01 4.667381268483748458e-01 1.138226013779539830e-02
1.127791951939375892e+01 2.980606462582254812e-01 1.645200559323212880e-02
1.127795079188778260e+01 1.615119598622832484e-02 2.067156027603799656e-02
1.127856185026675817e+01 2.664962911127031764e-01 1.795013821074878391e-02
1.127940567276687922e+01 1.362093145890319879e-01 1.711520150378833399e-02
1.127952880298092175e+01 3.097117804184572054e-01 1.740987015605179045e-02
1.128910339273120478e+01 3.699125958773515355e-01 1.633606848626768110e-02
1.129282041451579666e+01 4.084096003041446377e-01 1.628127742627818314e-02
1.129411164118834954e+01 -7.286992496035537246e-03 1.869255515769105425e-02
1.129542488786633214e+01 2.918317736071340263e-01 1.200763414626210279e-02
1.129605851272126316e+01 4.832152477715318667e-02 1.911237703133513571e-02
1.130588242800944698e+01 1.292840244578877806e-01 1.947863184344589271e-02
1.130747079198945215e+01 2.333997095372494501e-01 1.642877357900232593e-02
1.130841284015403403e+01 6.016290787419290020e-02 1.759444595803812822e-02
1.131010211404595900e+01 4.565732335551682675e-01 1.324210045090976756e-02
1.131215019853775416e+01 1.429888907296300860e-01 1.846731094164694859e-02
1.131617480202428538e+01 4.457063024023888986e-01 1.323463372163985463e-02
1.131879940753457525e+01 3.246362003822277909e-01 1.775589858555939177e-02
1.132194460409528602e+01 3.832412947975852996e-02 2.050523293230013117e-02
1.132811831553313731e+01 2.182780565564536313e-01 2.126209884127828326e-02
1.132882890058469449e+01 4.744972896909063764e-01 1.413877771684749624e-02
1.134259053742321477e+01 2.614699574545225058e-01 2.019053621277882432e-02
1.134857645868470932e+01 7.778352785349951226e-02 1.451647187387088145e-02
1.135111348291380118e+01 6.131458548001373493e-02 2.087368045189108567e-02
1.135771230989638170e+01 6.182751686324382268e-02 1.450480234404938340e-02
1.135800337734519339e+01 3.298692512585324477e-01 1.859973155996134248e-02
1.136364845003483737e+01 3.931441636990241628e-01 1.314023226830406121e-02
1.136533083402623312e+01 -5.305236682839516854e-02 2.095511508081638469e-02
1.136602893153693294e+01 3.482866893291085564e-01 1.806545528613834328e-02
1.136787098529671169e+01 4.776653345603533718e-01 1.498554197427520718e-02
1.137723585496166834e+01 2.127018650139163858e-01 3.087521299320571816e-02
1.137856706475044000e+01 2.524002600529325346e-01 1.324874905952600629e-02
1.138018140646629384e+01 3.028229135578211842e-02 1.788566719106379765e-02
1.138101856278170843e+01 2.127375253335260785e-01 2.158597988830068815e-02
1.138334121590223447e+01 3.528092637469421033e-01 1.409860309732526712e-02
1.138403696432921031e+01 3.572572572491461984e-01 1.409141502945440022e-02
1.138634290634229451e+01 3.733543386112180285e-01 1.504209087033128722e-02
1.138715733728564850e+01 2.777098618923766749e-01 2.002896338406518623e-02
1.138941874818307021e+01 4.080923481118277074e-01 1.499354575911463622e-02
1.139245879907742953e+01 3.323474547854923800e-01 1.067398956125995696e-02
1.139249651794687956e+01 1.061600836918061459e-02 2.030887147393002634e-02
1.139250342109103897e+01 2.578857040114057586e-01 1.270971040384524797e-02
1.139264510068567482e+01 2.104523485981052988e-01 3.131615713609680468e-02
1.139282172040695507e+01 8.989353927252206888e-02 1.533653495395569111e-02
1.139363768069388172e+01 2.896672795011162593e-01 1.950673557924650220e-02
1.139492317946761801e+01 -2.455713095646942443e-02 1.838714479208609226e-02
1.139609254886792833e+01 2.988279084879960634e-01 2.095361743597075332e-02
1.139681541774808871e+01 2.423055376880040579e-01 1.076011864538518881e-02
1.139878973664493778e+01 -1.932187855993431139e-02 1.592686360683637226e-02
1.139982703066059599e+01 3.598272945308926274e-01 1.501371772396516840e-02
1.140055043126226231e+01 -1.460972215072107137e-02 1.787001283130502938e-02
1.140058286638419816e+01 4.311138796272021012e-01 1.639696606356619291e-02
1.140200891642548342e+01 3.480178713093184245e-02 1.829830055985815634e-02
1.140272982454811412e+01 1.587269626815396295e-01 1.474011673218978552e-02
1.140281251547857799e+01 4.728405950173646954e-01 1.341341789817995095e-02
1.140570195518229291e+01 2.537386771707315081e-01 1.804287522773734970e-02
1.140644204243023019e+01 2.768680284221640697e-01 5.807682422561778746e-03
1.140744315059557223e+01 -3.697398718834567916e-02 1.494262654403766960e-02
1.140816846416549701e+01 8.245453189001636374e-02 1.529539203268417275e-02
1.141106845275965753e+01 2.557475118588144469e-01 2.241738168281474236e-02
1.141291056419595584e+01 -6.441587375150376049e-02 1.593155358503249575e-02
1.141362836037897566e+01 5.051011312608720549e-02 1.677832148928921213e-02
1.141836325725614287e+01 9.308572338411344460e-02 1.818080647807846645e-02
1.141912512154469539e+01 3.409932222711316019e-01 1.399651975370954510e-02
1.142050745627353159e+01 1.914287950939538852e-02 1.386110748298965273e-02
1.142493247449083249e+01 3.311857063378778609e-01 1.349975914988297415e-02
1.142795597392574258e+01 3.652357472461172372e-01 1.442917751368026635e-02
1.143345583606799210e+01 1.310314211502256465e-01 1.515993051003246272e-02
1.143497602310950256e+01 -1.281285763067679419e-02 1.678001743467761459e-02
1.143597026704778941e+01 4.407996891452447552e-01 1.431931767512632098e-02
1.143831932107217497e+01 2.546359036608120130e-01 1.549483966220127629e-02
1.143863707091279203e+01 1.174687757154442569e-01 1.906429455902381581e-02
1.144318603919468558e+01 3.609162735006175016e-01 9.501948970398500782e-03
1.144622667745558964e+01 2.183525173280781440e-01 2.234576571281514379e-02
1.144912141510247494e+01 2.683456562941484713e-01 2.423489613522621794e-02
1.144980029918054321e+01 3.081115684564059154e-01 1.784039380482682624e-02
1.145335182121864293e+01 4.151901475718334233e-01 1.380377459161848813e-02
1.145747045656908014e+01 2.998916090297866210e-01 1.880073242004753897e-02
1.145802345395850708e+01 2.451308088950920616e-01 2.081392499738646262e-02
1.146035492085476371e+01 2.220839387979708646e-01 1.643700907698996544e-02
1.146107653141899618e+01 2.400370176139579315e-01 1.739185908029265704e-02
1.146628568759600242e+01 9.035856945699519138e-02 1.705249551987003676e-02
1.147154277151531332e+01 9.998802539668975864e-02 1.653679620024896268e-02
1.147373321646486310e+01 -2.209029762449740697e-02 1.813062658124697107e-02
1.147589566020450924e+01 3.361897779111918672e-01 1.528312494016748763e-02
1.147665326049943246e+01 4.781251732562943335e-01 1.463474337621917948e-02
1.148422177556772716e+01 3.054074669834449529e-01 1.773256196008139024e-02
1.148775538047535960e+01 1.298897697796087269e-01 1.986945714541409752e-02
1.148967240621817787e+01 3.659360354272812033e-01 1.911265933899697345e-02
1.149060162006778540e+01 6.039709297214207462e-02 1.749660774301498023e-02
1.149783805472553588e+01 4.082352979935894854e-01 1.659730577083618625e-02
1.149983449838605409e+01 -2.483497994901578271e-02 1.658454102568417132e-02
1.150040514904385702e+01 3.571254243048864740e-01 1.762292204330898754e-02
1.150320219901179186e+01 2.869459213501533434e-01 1.720403235675606324e-02
1.150755372700035117e+01 3.202016103852206030e-01 1.959401245799018143e-02
1.150754326997496868e+01 2.893727714966310982e-01 1.523329394672160580e-02
1.150765359452049452e+01 9.230404949415943472e-02 1.740620754392724345e-02
1.150766248882907128e+01 -3.099198515920579752e-02 1.656618302556389644e-02
1.150812414739098877e+01 4.510626385261681803e-01 1.505156847778434809e-02
1.150838917495194380e+01 4.236789764904964062e-01 1.264019099790187478e-02
1.151301465167363425e+01 2.221092849421489324e-01 2.115051793085637177e-02
1.151742760875472626e+01 4.198470974826154500e-01 9.197334100598426876e-03
1.151784241692788413e+01 1.074333713096368437e-01 1.589147923492239406e-02
1.152236976601670548e+01 1.562573391963822389e-01 1.582259170854564273e-02
1.152295523076246297e+01 2.518004488794235440e-01 1.766746685115452159e-02
1.152687511603929416e+01 1.209270516869899170e-01 1.828836779535664842e-02
1.153140148421578814e+01 4.388429376587818509e-01 1.352613873799562300e-02
1.153192994468829369e+01 4.630497421538444236e-01 1.691563856047833408e-02
1.153206230650937059e+01 5.471555369689910797e-02 1.785736788426019878e-02
1.153343515007697029e+01 5.010766151359876547e-02 1.883396645624302312e-02
1.153905431909169366e+01 1.306974610370919554e-01 1.237928277538390825e-02
1.154138401074829900e+01 3.234235973736591108e-01 1.411044027150484825e-02
1.154161963554129855e+01 8.938832860543807074e-03 1.543550492625717779e-02
1.154188199571692230e+01 2.326508709678837827e-01 1.713987536182259158e-02
1.154432929801017949e+01 2.681330305478175635e-01 1.904545077607128906e-02
1.154685621289539732e+01 3.358059144624468417e-01 1.261406945315534517e-02
1.154723652626326391e+01 7.603180749381198422e-02 1.534278754606907547e-02
1.155170365987181569e+01 2.654605384317253458e-01 7.793603337056587144e-03
1.155292829770140450e+01 2.099697716327753594e-01 2.152344315697377053e-02
1.155781970548143356e+01 6.516102206783054573e-02 1.825075498609735752e-02
1.156028068884519477e+01 1.712957939911131655e-01 2.154278673109569914e-02
1.156112432520335531e+01 2.221263594861563606e-01 1.122959850253710257e-02
1.156164643955724713e+01 1.846813480166193955e-01 1.126956904603267084e-02
1.156181792140087161e+01 -4.252069716628945756e-02 1.493964487407167113e-02
1.156225332804615391e+01 2.847323654264768966e-01 1.750429235558955549e-02
1.156245960710392318e+01 9.353458466269752580e-02 1.332126161268487596e-02
1.156404074786685321e+01 2.194760761169974872e-01 1.366504960373511601e-02
1.156453043302902195e+01 2.474990790849758981e-01 1.997936035106289560e-02
1.156505841638654175e+01 2.370520428155125092e-01 8.271282918928847538e-03
1.156672599519847644e+01 1.825732638283966980e-01 2.736962292396445673e-02
1.156764638271276624e+01 -6.514957464688653221e-02 1.055202642266143270e-02
1.157043097188702241e+01 2.743864568018551942e-01 1.309442344857458113e-02
1.157075541516251072e+01 3.138407866716181882e-01 1.158542337352389678e-02
1.157108166765886992e+01 3.179703186217071043e-01 1.206784018183076207e-02
1.157819007912918075e+01 9.091676055005235013e-02 1.522655756950017092e-02
1.158053840398801881e+01 4.384410872160032224e-01 9.950346326502587657e-03
1.158221868221758477e+01 5.839279481885167877e-02 1.622667972173071071e-02
1.158235906800528170e+01 2.055754220142960997e-01 1.850349389738535633e-02
1.158270447358613886e+01 -5.870988466969517816e-02 1.293747324427448053e-02
1.158356405741604966e+01 1.395150194943991367e-02 1.236581991928271951e-02
1.158615766995656493e+01 4.175602282895954365e-01 5.560433093255420789e-03
1.158835765008884877e+01 1.940133987684323769e-01 1.215009314561339010e-02
1.159295685944779919e+01 3.276769446863292412e-01 8.080641632326260315e-03
1.159451908487278438e+01 3.431395102848587841e-01 8.546358265024416034e-03
1.159678159300742095e+01 2.924033748639411900e-01 1.298953143076801015e-02
1.160309645638297482e+01 2.316480560917206777e-01 1.450175450456889920e-02
1.160379377638598442e+01 2.360956261805043366e-01 1.498262267932738701e-02
1.160449978060431597e+01 4.743159896402694975e-01 1.520433577497611738e-02
1.160528601922970893e+01 4.094873149987496852e-01 1.283190874257647551e-02
1.160604747222828514e+01 4.807755296345900820e-01 1.568011368284762813e-02
1.160777063443257262e+01 4.719782548887198614e-01 1.275439657762784257e-02
1.161186044855897137e+01 1.492251339874848259e-01 1.456521655991288577e-02
1.161341744479574700e+01 8.953943247763479496e-02 1.853255570451867867e-02
1.161649271283781815e+01 1.069497670915812854e-01 1.069136346963116269e-02
1.161897884338690545e+01 4.866849702574039815e-01 1.514395352482317270e-02
1.162049779507116121e+01 1.659786793599608151e-02 1.712705217287645298e-02
1.162133859751546083e+01 1.419043336711095782e-01 1.747290747101198916e-02
1.162263097932657985e+01 4.185200889376012312e-01 1.618402293723406743e-02
1.162263332669073890e+01 3.062665555481185187e-02 1.515051040199395099e-02
1.162265426678151137e+01 2.599055930666190894e-01 2.124337441078978650e-02
1.162264829442416314e+01 7.495556475227024840e-02 1.412514547717751145e-02
1.162279116326494410e+01 3.544361083965680281e-01 1.625479066189377403e-02
1.162383545113268646e+01 -3.769854341958548544e-02 1.229359570291180259e-02
1.162459077165517840e+01 -4.155947812789081292e-02 1.864240403915958660e-02
1.162689989195402163e+01 -1.196247387800992816e-02 1.323110823528274999e-02
1.163708038181036386e+01 -4.565757288503948658e-02 1.763085139037075949e-02
1.163794998223485777e+01 1.066534477499687938e-01 1.306358422481866677e-02
1.164623236977187482e+01 3.044562493497094957e-01 1.818782742135610642e-02
1.164697171675990717e+01 4.200608808481456902e-01 8.779954539708707817e-03
1.164846389550124606e+01 1.830626653518708791e-01 1.587468918563068182e-02
1.164943787135760189e+01 1.338050483292996251e-01 1.446136689873231407e-02
1.165070430764686726e+01 4.142408621995212203e-01 1.951639952461850513e-02
1.165087239145136699e+01 1.742103025612511680e-01 1.197081886738366602e-02
1.165336205363925615e+01 -3.239061205176012315e-02 1.756366573939081160e-02
1.165414419577351168e+01 6.589998496011002793e-02 1.354573941009170474e-02
1.165485490901054710e+01 1.146748403499221747e-01 1.251227969885863878e-02
1.165634269085748542e+01 1.447261497804706518e-02 1.505993259166938519e-02
1.165697306336745598e+01 2.783222457261583238e-01 1.183536579142178274e-02
1.165842441694621456e+01 3.893811409198263962e-01 1.170715645879007172e-02
1.165852636293356603e+01 1.171631775879021370e-01 1.640365011708944804e-02
1.165931433358177749e+01 1.251087827204138379e-02 1.798249981055783514e-02
1.165989834057197783e+01 2.583484540041320332e-01 9.406156765812932752e-03
1.166400623764857691e+01 8.589586540695087757e-02 7.143657727997562712e-03
1.166623923938826302e+01 1.141263068117987778e-01 1.198817062636804015e-02
1.166643679303194503e+01 4.822702254750148021e-01 1.890212075037545764e-02
1.166698216444893177e+01 4.861285920060535309e-02 1.254671277437386517e-02
1.166950345567623515e+01 1.862628724211468634e-01 1.873344848855922756e-02
1.167379261668428825e+01 9.102924080463550838e-02 1.736059227050366915e-02
1.167393455191723106e+01 1.900606663638998994e-01 1.139086506462892029e-02
1.167529725356841119e+01 3.613973016852786713e-01 1.900804185766028637e-02
1.167691902250607505e+01 -1.343382787732299265e-03 1.501126811227870839e-02
1.167694746863432265e+01 4.488779907760822585e-01 1.060441311701036671e-02
1.167827865870300919e+01 2.939603406036730981e-01 8.331350374076493259e-03
1.167835845288150054e+01 1.097107734499006004e-01 1.146599661498595019e-02
1.167908670952877159e+01 1.584910603480876590e-01 1.531546670717758712e-02
1.167911696061186255e+01 2.516461111090987912e-01 1.081681718858050478e-02
1.168172479772729133e+01 2.538693838655623480e-01 1.373590071231359927e-02
1.168247167787655982e+01 2.898277935941135919e-01 1.320543769374286219e-02
1.168605974920684965e+01 3.487682047041862354e-01 1.263935189444966023e-02
1.168641528161403897e+01 3.566379361294939876e-02 1.786947868013673280e-02
1.168710505302257729e+01 4.460792920251208798e-02 1.346328709646795602e-02
1.169022716687562813e+01 4.634263802092196127e-01 1.542834699071620602e-02
1.169098706584355796e+01 1.911435524918216611e-01 1.035783347606496207e-02
1.169760354392670010e+01 9.018813088794266908e-02 1.093688606324692142e-02
1.170650617849897834e+01 3.842185699925602105e-01 1.204613296930374250e-02
1.171350069493108315e+01 3.189067099340451850e-01 1.307317612527751638e-02
1.171958250851589867e+01 1.494203374835717246e-01 1.373017946879964007e-02
1.171972569919214280e+01 4.333991956423345338e-01 1.341383577201399335e-02
1.172313135746756885e+01 3.181475369151896548e-01 1.108997079753146903e-02
1.172450478604057089e+01 -1.270417338334115312e-02 1.242969133819622068e-02
1.172669087627049223e+01 8.548611360835493833e-02 1.621939110357169950e-02
1.172820428547181137e+01 -2.303647301464280955e-02 1.487025592450349348e-02
1.173066511849863858e+01 4.446669492713837268e-01 1.678409121958902850e-02
1.173189757628220597e+01 2.928743834939049884e-01 1.548387789220789790e-02
1.173407823726705601e+01 2.722661328356076327e-01 1.256982549274598959e-02
1.173544633751480326e+01 1.000354650764660458e-01 1.471003745327649492e-02
1.173549270474980055e+01 2.375168357464607360e-01 8.697962359818504907e-03
1.173768125629447745e+01 1.109387174265191456e-01 1.224972849779875500e-02
1.173769947276396408e+01 2.432420654858764575e-01 1.698549413848169515e-02
1.173785225263513787e+01 -2.378967176270651435e-02 1.825792739692184974e-02
1.173791913824106103e+01 4.399431497421972814e-01 1.871902456188781483e-02
1.173798378780960050e+01 3.924842048559310514e-01 1.340055496191112916e-02
1.173981211831240579e+01 3.407388546457549294e-01 1.491720381041400367e-02
1.174114372153880836e+01 1.858233133484532007e-01 1.362025805575826920e-02
1.174403924316304249e+01 -1.977912822832040771e-02 1.335157538216952960e-02
1.174573227380105500e+01 2.180087309256041883e-01 7.710682267493364217e-03
1.174914493360416223e+01 3.185317695806221261e-01 1.393482272597511284e-02
1.174988523063059809e+01 2.440181318067784488e-01 1.792128549194099002e-02
1.175305512119489570e+01 1.125070235756817638e-01 1.610443966599032356e-02
1.175597680166844761e+01 4.849234704934451967e-01 1.177481520075147892e-02
1.175678630918918799e+01 1.291829273264817890e-01 1.509786892961442056e-02
1.176173421754834791e+01 1.588781801600564272e-02 1.325492226725131367e-02
1.176432377836922427e+01 4.894741599737844062e-01 1.955582070851490106e-02
1.176519200308144519e+01 -1.520182786337564984e-02 1.718444503366832465e-02
1.176612315975324208e+01 3.805696929896921210e-01 8.440205787976377827e-03
1.176747356109911102e+01 4.106069585466854410e-01 1.767934541056045278e-02
1.176950433911492055e+01 -3.527973744045528187e-02 1.816878622369718504e-02
1.177014178518862764e+01 -2.702254835504787692e-02 1.473964791788169582e-02
1.177350972135305618e+01 4.388811445221569296e-01 1.958251819633382435e-02
1.177553044148372230e+01 2.929081717163051768e-01 1.339041487120120472e-02
1.177771336538638636e+01 1.663284238300439810e-01 1.547711044126253571e-02
1.177910286709560594e+01 1.398990076802642257e-01 1.599009461638659785e-02
1.178050048673071259e+01 5.632291143163166425e-02 1.510255300900490566e-02
1.178527454550279607e+01 -1.539007882155474932e-02 2.053800197336247413e-02
1.178800810396314347e+01 -1.111329769645365458e-02 1.222343628027813822e-02
1.179211234731273805e+01 6.303104083613123021e-02 1.603370685166635723e-02
1.179631917101038496e+01 2.798450065788132268e-01 1.236097468388176052e-02
1.179634699673854392e+01 2.875799715541529911e-02 1.605819442914693806e-02
1.179700831444908182e+01 4.692377741662618340e-01 1.556609922765173071e-02
1.179755673665727045e+01 3.264993451589355278e-01 1.084102538872735305e-02
1.179822335058437766e+01 2.512918145419657523e-01 9.457559100597069668e-03
1.179829141143675209e+01 6.253802137060808508e-02 1.064342004116389934e-02
1.180158635502380449e+01 3.056590941551922454e-03 1.118782981508593954e-02
1.180307997964210642e+01 2.165597862209888910e-02 2.141546578538013057e-02
1.180497837441974696e+01 3.292529711719507229e-02 1.358478110196060379e-02
1.180562266527634030e+01 3.321040751750323761e-01 1.324991626206933892e-02
1.180767805351255895e+01 3.651956952982876592e-02 1.113099169382275599e-02
1.180819153909017771e+01 3.869647948322623709e-01 1.025066621673078465e-02
1.180853313985826958e+01 3.853214489394411052e-02 1.259006806840966275e-02
1.181245535637121336e+01 2.692260083498020373e-01 1.232082694993068273e-02
1.181249333193618867e+01 1.639380157672231664e-01 1.146181362931850134e-02
1.181383363935809783e+01 3.262689100712867774e-01 1.664798186336131913e-02
1.181716930027826251e+01 2.366470103626824306e-01 1.234188679902781943e-02
1.181731766255196270e+01 1.282372538048921484e-01 1.441503550249641913e-02
1.181800198420378400e+01 9.735556288237234845e-02 1.200619888091983278e-02
1.182115994790325431e+01 -3.415832446958989160e-02 6.771152715492383123e-03
1.182193375989166029e+01 2.047559253080561137e-01 1.138601112306419222e-02
1.182383559528597061e+01 2.423505763901676879e-01 7.432107161842990695e-03
1.182511629325893487e+01 2.671952113712598442e-01 1.423535406348538923e-02
1.182839781107193566e+01 7.991282402651748995e-02 9.551027724106500583e-03
1.182972701960656892e+01 7.011996868593302346e-02 1.590469944386638246e-02
1.182976168728423971e+01 1.940990966215463409e-01 1.332569601804697856e-02
1.183103024148537763e+01 2.542632239429050145e-01 1.520761221334290120e-02
1.183141283954814149e+01 1.756082249242205962e-01 8.945902917444611968e-03
1.183206926536377068e+01 8.240019509190177338e-02 1.344251321652888825e-02
1.183355236111448860e+01 2.821138948422984294e-01 1.126254956303659321e-02
1.183786646353168592e+01 2.003864281880487208e-01 1.085150617870915546e-02
