# .PCD v0.7 - Point Cloud Data file format
VERSION 0.7
FIELDS x y z
SIZE 4 4 4
TYPE F F F
COUNT 1 1 1
WIDTH 1142
HEIGHT 1
VIEWPOINT 0 0 0 1 0 0 0
POINTS 1142
DATA ascii
12.82761457 -1.0286371220000001 0.025632758999999998
12.83186458 -1.093729771 0.029597441000000002
12.85298129 -1.058339326 0.023631078
12.85723187 -0.986635864 0.024025579
12.85829173 -1.017196378 0.023568212999999998
12.86356836 -1.04221479 0.013324893
12.8886314 -1.058713236 0.025469735
12.88881088 -0.967997404 0.019020167
12.8900332 -1.0491439390000001 0.012270466
12.89212547 -1.009475105 0.016614647
12.89636374 -0.9820962759999999 0.01998856
12.89733717 -1.097503365 0.018160761
12.90050041 -1.057565665 0.026895217000000003
12.90577917 -0.9811101740000001 0.015561986000000002
12.90900604 -1.019456997 0.017548311
12.91108323 -0.9797920290000001 0.017497501000000002
12.9142955 -1.031643635 0.02145091
12.92066462 -1.0962082690000001 0.025408293
12.92264301 -0.973771389 0.018917648000000002
12.92580737 -0.96016101 0.023775311
12.92903367 -1.099980115 0.027338462999999997
12.93321453 -0.984647485 0.017919698
12.93425146 -0.958066863 0.013980831
12.93750644 -1.0888781109999999 0.021927778999999998
12.93945986 -1.090418779 0.020458226
12.94375756 -1.018028914 0.019387856999999998
12.9459035 -1.047648703 0.009647912
12.94907036 -1.043034834 0.020374572
12.95333293 -1.02397643 0.018874669
12.95443492 -1.071850497 0.023319418999999997
12.96183779 -1.003865003 0.018336852
12.96928699 -0.9660202509999999 0.009969763000000001
12.97149416 -1.035440579 0.023223986000000002
12.98104784 -1.024068502 0.024157603
12.98634279 -1.1024009879999999 0.030086572000000002
12.99818386 -1.070438043 0.02366492
12.99937292 -0.989145191 0.022594771
13.00252022 -1.0680139020000001 0.020230245
13.00359633 -1.107567065 0.029059843999999998
13.00368289 -0.991226974 0.013794141999999999
13.00371648 -1.043866594 0.017758549
13.00402111 -0.960766804 0.021083147000000003
13.03381378 -0.973844991 0.020024728999999998
13.0391925 -1.002656791 0.027363547000000002
13.04442257 -1.103506499 0.025017902
13.04554875 -0.974084594 0.013151178000000001
13.04768351 -0.9780510290000001 0.019984746
13.04978879 -1.09250007 0.024500317999999997
13.05078852 -1.026779785 0.021981987999999997
13.05621267 -1.085729428 0.025937079
13.06379456 -1.072825311 0.021503265
13.06594658 -1.076115662 0.017594035
13.07025982 -1.0961936 0.018578486
13.07447241 -1.086822268 0.022461596
13.07767375 -0.9665556829999999 0.018410411
13.08089583 -1.009404982 0.020889707
13.08409691 -1.021435227 0.017962713
13.10008487 -0.976963494 0.026650828999999997
13.11870072 -1.022067205 0.024200071
13.11882002 -1.0861653070000001 0.011574935
13.11961476 -0.9397175959999999 0.020199566000000002
13.12467047 -0.954663246 0.018734819
13.12575423 -0.980716334 0.023154332000000003
13.13424633 -1.053084475 0.015883509
13.13741411 -1.048470548 0.026610166
13.13830156 -0.984127357 0.023117723
13.13943877 -0.995994085 0.020686277
13.148036 -1.040660525 0.015825285
13.15126413 -1.048184246 0.018753213
13.15450852 -1.002378988 0.016249808
13.15754793 -1.029972622 0.020177813
13.16068131 -0.954722435 0.017641898
13.16391891 -0.9840678629999999 0.018152175
13.16936909 -1.0911615270000001 0.021183703999999998
13.17039411 -0.99460703 0.027909031
13.17463876 -1.081527727 0.024574147999999997
13.19171921 -1.027113505 0.022017636
13.19595149 -0.995238649 0.020991407000000004
13.20659501 -0.93927133 0.024800955
13.20868919 -0.9740783679999999 0.018485869
13.21181055 -1.04912503 0.022465371
13.213958300000002 -0.9336185090000001 0.022817919
13.217112 -0.9245086509999999 0.027192675
13.22343601 -1.081564712 0.014650847
13.22780241 -0.986654969 0.023321417999999997
13.23373121 -0.986083571 0.021836715
13.23389894 -0.9351947159999999 0.015431486000000001
13.23445943 -1.104924489 0.028313507999999998
13.23527586 -1.081096968 0.023402405
13.23621314 -0.994241442 0.02379072
13.23836053 -1.041857443 0.023836771
13.24047642 -1.045831362 0.024810386
13.24159627 -1.062205877 0.018965995
13.24257272 -0.957338565 0.022752164
13.24797802 -1.1004423429999999 0.030218027999999997
13.25518808 -0.9112334240000001 0.019242241
13.26661064 -1.0042426359999999 0.028097985
13.27510838 -0.94431075 0.021657011
13.276057699999999 -0.9807491490000001 0.022182432999999998
13.28234272 -0.9933640640000001 0.023153257000000003
13.28329776 -1.047128023 0.01783791
13.28646065 -1.002690562 0.023638318
13.28768996 -1.000360794 0.026072752
13.29474609 -1.046984299 0.020242893999999997
13.30193087 -1.1057216109999999 0.028097131
13.30292147 -1.070828111 0.022196129
13.30515185 -0.9674513229999999 0.021096925
13.31122974 -1.070790338 0.020216296
13.31332652 -1.101768085 0.028545009
13.31945138 -0.939826614 0.023462159
13.32029829 -1.074612383 0.025562397999999997
13.32134347 -0.906733536 0.019024211
13.32445023 -1.017109945 0.019626067
13.32643893 -1.040464054 0.024039663
13.32863329 -1.0122466479999999 0.017165067
13.34283809 -0.9859936579999999 0.023438206
13.34493774 -1.100444329 0.026487797999999996
13.34702067 -0.888657727 0.023316466
13.34805599 -1.029697772 0.021517094
13.34880298 -0.962913784 0.022416296000000002
13.34891192 -1.032184962 0.024935006000000003
13.34905907 -1.109771249 0.027461819
13.350175 -0.927699044 0.019443776
13.35235709 -0.957306399 0.020933636000000002
13.35743946 -1.0338913790000002 0.026373512
13.35951768 -1.011553543 0.019017883
13.36141797 -1.0799300859999998 0.018599875
13.3625437 -0.95117618 0.023824084
13.36352012 -1.026759975 0.019510993
13.3644775 -0.992547505 0.019957801
13.36864636 -0.944037173 0.023796492000000002
13.36967708 -0.9971044720000001 0.025317179
13.37967799 -1.09002143 0.020017279
13.38264646 -1.070157326 0.0273096
13.38379627 -0.914400495 0.026155726
13.39186157 -0.9306233190000001 0.022730808999999998
13.39397589 -0.934598747 0.023216369
13.39908537 -1.050327136 0.023816707000000003
13.40000028 -0.99430334 0.016427353999999998
13.40410137 -1.052458513 0.019896851
13.40498042 -0.8519924879999999 0.026995009
13.40510351 -0.894261975 0.021182746000000002
13.41212682 -0.932569339 0.017295642
13.41722913 -0.9648253459999999 0.022687167999999997
13.4192772 -1.004815959 0.021260078999999998
13.42025575 -1.098393378 0.027219904
13.42223093 -0.980457406 0.02171142
13.42439402 -1.0762196640000001 0.0179049
13.42630357 -1.082944809 0.022300254
13.42927857 -0.846636045 0.021051924
13.43022983 -1.0416960290000001 0.02028869
13.43231083 -0.860735035 0.015686676
13.43422559 -1.044076783 0.028579478999999998
13.43618382 -0.930644558 0.020634051
13.43819738 -0.860846782 0.01859689
13.43938776 -0.9959958729999999 0.028509372999999998
13.44436677 -1.07778549 0.020771373
13.44543402 -0.8482494509999999 0.022466673
13.44636259 -0.889194247 0.019091214
13.4511484 -0.921078243 0.024482207000000002
13.45416563 -0.908856337 0.018110928000000002
13.4552004 -0.96192363 0.020607609
13.45903755 -0.837900193 0.014598297
13.46110124 -1.02817936 0.027987307000000003
13.46320409 -1.01865972 0.018691909
13.46387456 -0.8909236840000001 0.014153642
13.46396415 -0.8548978490000001 0.023878353999999997
13.46404698 -1.069971966 0.026559332
13.46411264 -1.0866063540000002 0.022671662000000002
13.468279800000001 -0.984776575 0.015219861000000001
13.47720623 -1.095958617 0.014338783
13.48116691 -0.9930487259999999 0.024953662
13.48210005 -0.958844888 0.017588521
13.48423439 -0.865839804 0.024802285
13.48511612 -1.1059156479999999 0.025066493
13.48600914 -0.97092304 0.021007497000000003
13.48709086 -1.0586274 0.022566548
13.490187900000002 -1.005885146 0.020055786000000003
13.49408546 -0.951819313 0.019007203
13.49800973 -0.9458959370000001 0.017522887
13.50001657 -1.030892634 0.025911067000000003
13.50181031 -0.9285256040000001 0.021397402000000003
13.50488208 -0.89378871 0.020371841
13.50787149 -0.846922738 0.020310084
13.50875412 -0.932875247 0.025285842000000003
13.51082378 -0.9458634779999999 0.016992618
13.51355901 -0.915931472 0.028669537000000002
13.51553355 -0.855145835 0.019318551
13.52125494 -1.055769489 0.022453358
13.52233221 -0.900708174 0.015441265
13.52332065 -0.923635633 0.021322697999999998
13.52431984 -1.10068211 0.026399409
13.52519698 -0.868721002 0.017349496000000002
13.53184669 -1.017818301 0.018959023000000002
13.5329269 -0.8146016209999999 0.022147511
13.53403913 -0.950447831 0.024736023
13.53690943 -1.02826039 0.017977305
13.53779466 -1.048063969 0.022879474
13.54280013 -0.988548419 0.017914163
13.54748819 -1.012807534 0.022321096000000002
13.54846576 -0.991416341 0.01887614
13.54937953 -0.98421579 0.019353135
13.55007485 -0.632963186 0.022409232999999997
13.55149609 -0.988189165 0.02081583
13.55235682 -0.853877558 0.023104642
13.5590712 -0.785838032 0.018124232
13.56287107 -0.79479505 0.018121959
13.56684485 -0.7708576229999999 0.022965642
13.5678585 -0.8592543029999999 0.020619722
13.56874795 -0.891883082 0.017235023000000002
13.56965317 -0.89818164 0.02212222
13.57075521 -1.073854283 0.025243011
13.57171354 -0.929170314 0.019707934
13.57549728 -0.793008532 0.023939337
13.57732527 -1.0868500559999998 0.016447245
13.57828985 -1.087959185 0.020840531000000002
13.5790991 -0.791213087 0.023436772
13.57909754 -0.945337988 0.018237165
13.57917013 -1.072439964 0.022773357
13.57934581 -1.1011951629999999 0.026222792
13.57943726 -1.1088232679999999 0.025253952000000003
13.58224569 -0.896407101 0.017196592
13.58530363 -0.787199103 0.023412328
13.59205442 -1.098040991 0.023736352999999998
13.59293687 -0.870577505 0.018598525
13.60257134 -0.81418631 0.021433706
13.60445514 -0.76826909 0.024306632
13.60833991 -0.763027805 0.027218247
13.61395459 -0.907209072 0.01808251
13.61482364 -0.84354142 0.02582195
13.61874937 -0.736145735 0.022759894
13.62234169 -1.06059791 0.019203155
13.62525256 -1.023427193 0.016222366999999998
13.63192766 -0.801948986 0.019860587
13.63274524 -0.9547411729999999 0.022469918999999998
13.63364428 -0.7535981270000001 0.01882527
13.63463791 -0.73670024 0.023197295
13.63861647 -0.756413133 0.01881239
13.63945626 -0.93552504 0.024379973
13.64135589 -0.919756441 0.014102271000000001
13.64606149 -1.00115989 0.020036666
13.64963838 -1.097017117 0.027944721000000002
13.6505129 -0.874056285 0.022322957
13.65140058 -0.977335864 0.020970004
13.65329142 -0.89159128 0.022333514
13.65418625 -0.924218853 0.02090195
13.65909912 -1.002872156 0.023414604
13.66088632 -0.84335793 0.02079043
13.66194578 -0.882916554 0.024736982
13.66368561 -1.0676586590000001 0.01663587
13.67489128 -0.925154994 0.019859289
13.67771661 -1.043475443 0.019493743
13.67851839 -0.857202415 0.026608052000000004
13.68040132 -0.83311019 0.024134206000000002
13.68313449 -0.780683772 0.023579028
13.68509097 -0.759726261 0.012318341000000002
13.68592512 -0.727566699 0.024486964
13.68768886 -0.9649511959999999 0.017909308999999998
13.6922578 -0.9026156879999999 0.02368528
13.69293422 -0.827528507 0.014810512
13.69402563 -0.840081517 0.014820961
13.69405486 -0.861897702 0.018263263000000002
13.69417635 -1.014639146 0.017943689
13.69433218 -0.726156148 0.019575332
13.69523206 -1.027874637 0.023815034
13.696056099999998 -1.1010204140000002 0.020475843
13.69874359 -0.8861562470000001 0.023157117
13.69944784 -0.740410598 0.020063799
13.70041925 -0.772341598 0.025467127000000003
13.71709206 -0.7054300259999999 0.021433049
13.71800681 -0.6937286559999999 0.019952111
13.71986614 -0.731964218 0.024870622999999998
13.7207435 -1.0735149940000002 0.025247721
13.72168456 -0.69123917 0.025796384
13.72256186 -1.094438567 0.024777079
13.72529579 -1.059336721 0.017405255
13.73165375 -0.8464850909999999 0.02593697
13.73237023 -0.8015378679999999 0.011724661
13.73399817 -0.706405177 0.025773603
13.73794368 -0.7884491159999999 0.02585216
13.7389253 -1.088801375 0.021300102999999997
13.73993176 -0.666009547 0.021803601000000002
13.74155934 -0.803978023 0.021463882000000004
13.74229463 -0.9048185040000001 0.021084601
13.74330338 -0.742121537 0.021877407
13.74526312 -1.039077705 0.023666392
13.74608479 -0.891951253 0.023988152000000002
13.74687001 -0.665862034 0.022269156000000002
13.74782777 -0.754948785 0.018947039
13.75219105 -0.681866105 0.021293817000000003
13.75303742 -0.939951126 0.019624111
13.75668523 -0.80967438 0.017514414
13.75749291 -0.702374994 0.016904513
13.75851649 -0.693796925 0.017868706
13.76020512 -0.844571592 0.026330965
13.7629196 -1.07857077 0.017305498
13.76455143 -0.824145384 0.017505181
13.76547452 -0.693641886 0.024193072000000003
13.76635427 -0.669124584 0.021721984
13.76993137 -0.8484579590000001 0.022398007
13.775921799999999 -0.6969008320000001 0.013421066
13.776883300000001 -0.9099542270000001 0.02488501
13.77859932 -0.857106048 0.021403707
13.78037179 -0.9185374829999999 0.027325218999999998
13.78126793 -0.774545829 0.018861157
13.78289806 -0.90801391 0.017051448
13.78373506 -0.902177508 0.027296191
13.78622944 -0.857010985 0.02235504
13.78966559 -0.7249857679999999 0.019756133000000002
13.7914201 -0.786424743 0.019818825
13.79222242 -0.763274153 0.026626406000000002
13.79487527 -0.8836633190000001 0.023821824
13.79573971 -0.802000657 0.020798135
13.79649851 -0.823187185 0.020331311
13.79729937 -1.055634255 0.024005309
13.79877179 -0.9085738179999999 0.012605797
13.79963831 -0.6817863670000001 0.019186883999999998
13.803889100000001 -0.813027416 0.023714227
13.80639777 -1.0806008390000001 0.017167753
13.80715917 -1.070961244 0.018619556000000002
13.80913182 -0.9093728990000001 0.023316452999999997
13.80914606 -1.058992489 0.021040829
13.80918089 -0.6530909739999999 0.024007228
13.80938738 -0.773640487 0.017304627
13.81161204 -0.652939148 0.022046307
13.81575686 -0.9968282159999999 0.019485416000000002
13.81737348 -1.0731508509999999 0.017124123999999998
13.81813818 -1.103333288 0.023014233
13.82229723 -0.657935251 0.02104145
13.82295591 -0.737645364 0.019173934
13.82378818 -0.779963361 0.019218326
13.82478672 -0.824712978 0.023171872000000003
13.8254695 -0.961565807 0.024297907999999997
13.82633616 -0.7386086559999999 0.016235076
13.83195991 -0.711334603 0.022533688
13.83266187 -0.759536005 0.017703076
13.83433944 -0.65021955 0.023435076000000003
13.835123499999998 -0.975145285 0.019398935
13.83621957 -0.8598990590000001 0.02219728
13.83783911 -0.768599942 0.01867238
13.83862535 -0.64398246 0.019019292
13.84022886 -0.963077153 0.020346101999999998
13.84108184 -0.89491722 0.020267538
13.84256903 -0.9906211309999999 0.020369205
13.844989499999999 -0.651400393 0.025355019
13.84752788 -0.9761149159999999 0.023267055
13.85510045 -0.93238649 0.017334008
13.85586026 -0.768624075 0.023009422999999998
13.86081501 -0.7804447040000001 0.02154164
13.86163479 -0.924238782 0.019746025
13.8665491 -0.641323787 0.021368425
13.86753711 -0.9108482509999999 0.020200071
13.86827582 -0.747093441 0.01903851
13.86905589 -0.688627103 0.01750701
13.870674800000002 -0.928070033 0.016791109
13.87230122 -0.6518208870000001 0.020384549
13.87391018 -0.9792425359999999 0.010978614
13.87661952 -0.940990678 0.02704027
13.87748681 -0.885653137 0.022093044
13.87840475 -0.9799222409999999 0.025612849
13.87920581 -1.009422677 0.026131145
13.88326158 -0.8871440290000001 0.023053024
13.88582741 -0.933756217 0.021143686000000002
13.89188085 -0.9536288270000001 0.019681322
13.89468098 -0.706561535 0.02427945
13.90037232 -0.656100218 0.022740925
13.90132472 -0.886484533 0.023482186000000002
13.90369359 -0.640425892 0.026618757000000003
13.90445863 -0.6879350240000001 0.024716216000000003
13.90612848 -0.988340714 0.020649949
13.90699873 -0.681904834 0.021283313999999998
13.91031567 -0.7895304209999999 0.019927373999999998
13.91110105 -0.9821566159999999 0.016233036
13.91198951 -0.6757157579999999 0.022236367000000003
13.91422993 -0.9204054190000001 0.019083317
13.91512553 -0.6756109790000001 0.025644167000000002
13.91611714 -0.742189288 0.02180907
13.92015761 -0.836358981 0.024830763
13.92279158 -1.0319023040000002 0.020156801999999998
13.92419494 -0.762907564 0.024247089
13.92417764 -1.084658076 0.016793006
13.92427783 -1.105780282 0.025605132000000003
13.92427249 -0.6735665040000001 0.01975344
13.92434867 -0.919467887 0.019538775
13.92781441 -0.778434813 0.021323661
13.93155308 -0.924879656 0.022450527
13.9323619 -0.888227423 0.025337106
13.93310882 -1.085367048 0.011393984
13.93556382 -1.094204627 0.021649952000000004
13.93724083 -0.7556199720000001 0.025661951000000002
13.93863037 -0.9451697440000001 0.026845239
13.94192906 -1.0791261090000002 0.016729692
13.94283284 -0.697532286 0.022650286000000002
13.94520726 -0.9671614820000001 0.024406629
13.94780803 -0.8987919670000001 0.024811173
13.94852854 -0.6997203240000001 0.016286411
13.94919112 -0.669628498 0.026016788
13.95075752 -1.099207125 0.022094653
13.95234719 -0.937939568 0.023375126
13.95410149 -0.642309689 0.024016641000000002
13.95475333 -0.823495291 0.021775099
13.95636702 -1.102763567 0.022568492000000002
13.96182403 -0.812964081 0.024670571000000002
13.96952467 -0.952800442 0.019918329
13.97129362 -0.903763632 0.01790505
13.97200492 -0.859487033 0.019318599
13.97270228 -0.961011052 0.02382319
13.97665058 -0.667987865 0.016648505
13.97735564 -0.729686023 0.020132879
13.97815221 -0.9268088390000001 0.021326612
13.97890303 -0.69240196 0.021063453
13.98329603 -0.733610159 0.02451316
13.98419972 -0.915858528 0.018852951
13.99214864 -1.04393194 0.019458901
13.99288538 -1.0214741509999998 0.022849448999999997
13.99522491 -0.78442293 0.021113255
13.99976166 -1.035515275 0.027236946
14.00053102 -1.00787729 0.021832788
14.00134509 -1.002047498 0.025241582999999998
14.00430913 -0.87171512 0.024599117
14.00662312 -0.965416145 0.017371918
14.01040915 -0.9570498609999999 0.021256381
14.01700274 -0.652792802 0.023825755
14.01988752 -0.726102186 0.019016043
14.02263407 -1.0705603479999999 0.026226271000000002
14.02568012 -0.98318217 0.02367726
14.02725 -0.764771367 0.02245325
14.03363978 -1.102253162 0.02280807
14.03579419 -0.920597648 0.024063137000000002
14.03644938 -1.03113293 0.020277906000000002
14.03695798 -1.046756297 0.021758737
14.03774713 -0.886814393 0.021578285
14.03933739 -1.051789632 0.023221652000000002
14.03935715 -0.967638509 0.019709968
14.03946869 -0.684339099 0.026230398
14.03946485 -0.767815267 0.018022257
14.03967215 -1.09580762 0.017898485
14.03997465 -0.7924361999999999 0.024396086
14.04225329 -1.010118061 0.019259947
14.04705257 -0.8037297459999999 0.023896887000000002
14.05815317 -0.684426935 0.022752428999999998
14.06284649 -0.9289546340000001 0.024962239
14.06552214 -0.652445719 0.02562308
14.07641483 -0.6900169740000001 0.022699842999999997
14.07952197 -0.637270918 0.023607173
14.08082234 -1.092117465 0.015319865
14.0840774 -1.028981696 0.024028222000000002
14.08678193 -0.826939978 0.021841736
14.08808508 -0.836741635 0.020384488
14.08869954 -0.917137502 0.021447945
14.09254855 -0.854758883 0.017460088999999998
14.09435458 -0.86285835 0.023322281
14.09558426 -0.983826937 0.021987904
14.10510961 -0.9506376809999999 0.019479329
14.10630908 -0.8648427129999999 0.019380033
14.11162022 -0.7973734379999999 0.023193843
14.11288087 -0.763537782 0.019246186000000002
14.11817487 -0.8681960240000001 0.021786539
14.12579172 -0.8816026659999999 0.02568391
14.12746738 -0.957235154 0.025273672999999997
14.13308889 -0.788667818 0.024580006
14.13420113 -0.946339988 0.021821856
14.13472934 -0.648540899 0.019047916
14.13983565 -0.742444413 0.024018917
14.14558051 -0.9468896640000001 0.020321871000000002
14.14798643 -0.748969269 0.025952853999999997
14.14913166 -0.6811889859999999 0.018060824
14.15024965 -0.8080339190000001 0.01819832
14.15355809 -1.056957146 0.019929533
14.15435923 -0.760213248 0.020573901000000002
14.15441174 -0.667052117 0.022423143
14.15447557 -0.948281238 0.019805693
14.1546839 -1.0778277459999999 0.018484145
14.16334541 -0.941353353 0.02416447
14.16400252 -0.831617853 0.024528237
14.16494801 -0.665110773 0.020922078
14.16631106 -1.106438135 0.025314559
14.168177499999999 -1.065025718 0.024774422999999997
14.16868731 -0.648433706 0.021868402999999998
14.169329699999999 -0.864945374 0.01868927
14.17037732 -0.653413067 0.023332567999999998
14.17388924 -0.9085847429999999 0.025559045
14.17450105 -1.081455324 0.023307359
14.17509684 -0.71231622 0.021429853999999998
14.17626328 -0.935447292 0.019721258999999998
14.17970441 -0.944716351 0.024115532999999998
14.18139876 -0.8392237840000001 0.020086772
14.18318401 -0.710534201 0.016030778
14.18500026 -0.78477885 0.025385552000000002
14.18558774 -0.9974807520000001 0.01927229
14.19090695 -1.013484909 0.018295933
14.19254479 -0.692910987 0.0189111
14.19427924 -0.864826355 0.019584692
14.20028454 -1.092829144 0.026166941000000003
14.20077028 -0.725064996 0.024291318
14.20311639 -0.9728780640000001 0.022606493999999998
14.20736523 -0.8613518859999999 0.019050742
14.20866442 -0.783180227 0.021400588999999998
14.21201976 -0.9607699279999999 0.018169311
14.21559364 -0.66873634 0.026622027000000003
14.2167291 -0.77307781 0.020875436
14.2173225 -0.673032148 0.023203223999999998
14.22915106 -0.853017763 0.020924357
14.23198796 -0.680414994 0.025118158999999998
14.24003283 -0.648493106 0.024079716
14.24117753 -0.823480551 0.023782729
14.25176391 -1.094447164 0.026979094
14.25237474 -0.9982247740000001 0.020035088
14.25351467 -0.723670794 0.021678942000000003
14.2571237 -1.065444642 0.015699523
14.25775759 -1.044360744 0.021045081
14.26344948 -0.892427077 0.017927682
14.26404356 -1.030648824 0.025404519
14.26599777 -0.9660414709999999 0.023861382999999996
14.267910800000001 -0.9900911590000001 0.021439967
14.26940691 -1.0986197770000001 0.014719842
14.26944737 -0.9174865179999999 0.018425327
14.2695038 -0.758175357 0.021176867000000002
14.269513 -1.044592263 0.020519425
14.27106669 -0.87500965 0.022766771
14.27547219 -0.836566705 0.022709822999999997
14.278699 -0.901239285 0.021306395
14.28068422 -0.7877993640000001 0.021173817999999997
14.28326427 -0.6404606420000001 0.024419633
14.28579665 -0.841877532 0.024635524
14.28979797 -0.786435817 0.021631924
14.29223869 -0.7772811 0.018683927
14.29411744 -1.000458542 0.023809119
14.29476324 -1.084672237 0.0204827
14.29797831 -0.867428335 0.021206704
14.30004978 -0.858590603 0.018261272
14.30142048 -0.810549035 0.025039336000000002
14.30390498 -0.646586317 0.022895005
14.30456868 -0.889416722 0.022674918
14.31134898 -0.957480478 0.024681834
14.31805464 -0.9600934729999999 0.019292095
14.321199499999999 -0.823188782 0.022547697000000002
14.32445473 -0.869854916 0.020636201
14.32829534 -0.728503226 0.023884502999999998
14.32889559 -1.002849916 0.019793829
14.33363983 -0.7265019659999999 0.021424082999999997
14.33428319 -0.8813650140000001 0.019641348
14.34227009 -0.925280278 0.022105464
14.34291243 -0.978670623 0.018256822
14.34639094 -1.088729476 0.019343938
14.35316292 -0.764404764 0.017985477
14.35493661 -1.0107850790000001 0.018741772
14.35826168 -0.721515336 0.017432266999999998
14.36028854 -0.7223604579999999 0.021821726
14.361675 -0.850263749 0.02342451
14.36305609 -1.035318009 0.019719946000000002
14.36440345 -0.700864396 0.022760571
14.36984032 -0.847785607 0.025348385
14.37238575 -0.810930247 0.023834215
14.373025 -0.83799686 0.022397287000000002
14.37801347 -1.02575384 0.021614067999999997
14.37936681 -0.8499206970000001 0.024343168
14.380713 -0.66059187 0.017781288
14.38459297 -0.695175883 0.023178202000000002
14.38464002 -0.9854110340000001 0.01959493
14.3848543 -0.824034987 0.021367659
14.38984902 -0.7163720640000001 0.021231817000000004
14.39617751 -0.768123392 0.022733071
14.39885592 -0.976480352 0.021980205
14.40570914 -0.8672313540000001 0.022812621
14.40709676 -0.8981596270000001 0.02528445
14.41016758 -0.889748545 0.020870273999999998
14.41149786 -0.7229226240000001 0.020680423
14.41351152 -1.0763401000000001 0.018626076999999998
14.41420906 -1.085390004 0.025957873
14.41703836 -0.837642855 0.023232197000000003
14.41975334 -1.058814153 0.023957421
14.42335034 -0.7661024590000001 0.022643325
14.42542068 -0.863235773 0.024209682000000003
14.426770699999999 -0.9121752890000001 0.023771711
14.431573199999999 -0.665962276 0.02543541
14.43618082 -0.752568201 0.020145971000000002
14.43972213 -0.852937258 0.019270205
14.44414197 -1.06558564 0.019003428
14.45130882 -1.098003656 0.024387462999999998
14.45208835 -0.686967745 0.025880776
14.45501265 -0.843738647 0.026045743
14.45585387 -1.004852825 0.023293203999999998
14.45658416 -0.9425730109999999 0.021268537999999997
14.45798363 -1.035147125 0.025761028
14.460803 -1.016674117 0.020360463
14.47933653 -0.701579422 0.024345221
14.48152449 -1.013104403 0.022730751
14.48884679 -0.968312638 0.020704312
14.49042451 -0.917520323 0.024549717000000002
14.49574641 -0.673429471 0.024261067
14.49971343 -1.090037172 0.019340766000000002
14.49980506 -0.872893705 0.020562886000000002
14.49985728 -0.806056834 0.019512365
14.5000296 -1.037758674 0.025140482000000002
14.50928789 -0.77424123 0.020911585
14.52173002 -0.999298895 0.017703962
14.52478834 -0.726967492 0.024227103
14.52699479 -0.9280176179999999 0.021513681
14.52853665 -0.9922069509999999 0.023045093
14.53777664 -0.8436667170000001 0.021385135
14.54385361 -0.757558596 0.023222707999999998
14.54848483 -0.808833582 0.023264831
14.55021784 -0.7251549079999999 0.025607269
14.55104509 -0.7937977559999999 0.021286938
14.56555205 -1.028015961 0.022965733
14.56781894 -0.99910412 0.021949242999999997
14.56862976 -1.0241020159999998 0.022951469
14.57127518 -0.862574128 0.022763276000000002
14.57655229 -0.9100874659999999 0.024264112
14.60101975 -1.07028457 0.022409572000000003
14.61467436 -0.755499982 0.025433467999999997
14.6146647 -0.720178895 0.021000189
14.61478012 -0.9082468859999999 0.020231983000000002
14.61500992 -1.103935291 0.025331907999999997
14.61525461 -1.078675525 0.023349985
14.63350278 -1.027120118 0.02274593
14.63703566 -1.0748408090000001 0.025716681
14.64261597 -0.99493253 0.024145759
14.64543908 -0.9809577159999999 0.022167176
14.65038398 -1.028105496 0.018786706
14.65661718 -1.050406405 0.025138386000000002
14.66234154 -0.748166895 0.021853805
14.66325506 -0.873262179 0.02345499
14.67670567 -1.10324152 0.024156464
14.67834067 -0.6811948809999999 0.022704707
14.67928619 -0.7176359459999999 0.021765281
14.68630592 -0.69429267 0.019275727
14.69328623 -0.905404689 0.023883011000000003
14.70463063 -0.9991090009999999 0.02541478
14.70627689 -0.766506253 0.024174624
14.70997109 -0.640042505 0.022069132
14.71467374 -0.783096175 0.025142159
14.71541488 -0.6809893990000001 0.023073158
14.72973392 -1.023252931 0.02096678
14.7301581 -1.088398437 0.020549818
14.73078614 -1.031990715 0.022926035
14.73366907 -1.048151389 0.02146975
14.74496384 -1.036573019 0.019955525
14.75921652 -0.648064961 0.023384459
14.76576266 -1.049631358 0.022345082999999998
14.76857395 -1.079984365 0.022369794
14.77429024 -0.694271423 0.023875265
14.78097865 -1.076454717 0.023790901
14.78375749 -0.670771356 0.024794761000000002
14.78670244 -0.9110102940000001 0.024076386
14.79051157 -1.069586992 0.020822611
14.80515491 -0.8213823570000001 0.018546331
14.80607559 -0.840503907 0.018076689
14.82139212 -0.962924922 0.017186514
14.83160882 -0.850812344 0.024840942999999997
14.83931345 -0.862850039 0.022388426
14.84028452 -0.757984957 0.02422169
14.84339653 -0.660915812 0.02068568
14.84482096 -0.8941081190000001 0.021428544
14.84492991 -0.8310809859999999 0.023312033
14.84518344 -1.087740385 0.017736689
14.86028 -0.76787172 0.021727316
14.86122262 -0.707338812 0.020679917
14.86239243 -0.7763459779999999 0.024170925
14.87035435 -0.727795732 0.021650298
14.87228472 -0.879639012 0.023277962000000003
14.87432964 -1.051928057 0.021509075
14.87538037 -0.734422107 0.023106462
14.89022232 -0.915683283 0.020330341000000002
14.89228215 -0.726401772 0.021578137999999997
14.895382500000002 -0.7134826 0.023506709
14.89725391 -0.861516263 0.021223453
14.89825387 -0.7341437670000001 0.021567521
14.90165992 -1.05684029 0.024844547999999998
14.91017771 -0.9217538540000001 0.019784775
14.91651012 -1.039653562 0.022824574
14.92108654 -1.056293144 0.021363369
14.95994289 -0.711627294 0.022808809
14.95996977 -0.989040088 0.023117301
14.95999496 -0.8432381729999999 0.022955037999999997
14.96016285 -0.867494275 0.022004448
14.96016895 -1.092264698 0.021766504
14.97080752 -0.868678285 0.021971487999999997
14.97413901 -1.024447611 0.017251038
14.97515175 -0.7339520079999999 0.02034266
14.99314589 -0.844455249 0.022849643
14.99812529 -0.8690950679999999 0.019443002
15.00003713 -0.968292817 0.021500226
15.00358114 -0.8085679179999999 0.021311144
15.00833869 -0.681838562 0.020665888
15.00956066 -1.010252138 0.02298121
15.01061762 -0.908518956 0.020422636
15.02575613 -1.020181589 0.024404172000000002
15.035368099999998 -0.739026939 0.022107442
15.04008883 -0.731780047 0.021108172
15.04592174 -0.732578774 0.024019323
15.0542082 -0.746046988 0.022054584
15.07115946 -0.711014558 0.021472971
15.07499369 -1.028206775 0.023278429
15.07502144 -0.9132252829999999 0.0236385
15.07510176 -0.797560429 0.022533576
15.07548973 -0.722089949 0.022936323999999998
15.07630339 -0.7734109779999999 0.022013874
15.08489675 -1.096171636 0.024298262
15.08885452 -0.909117745 0.024077449
15.10144946 -0.814867948 0.022955932999999998
15.11251475 -0.8766936329999999 0.020547179
15.11633872 -0.8104959509999999 0.022903125
15.12516769 -0.887727816 0.023936725
15.12777354 -0.977976753 0.024028722000000002
15.14207419 -0.879704857 0.02387336
15.14858207 -1.012860356 0.023512457999999996
15.16169752 -0.660638297 0.020637449
15.16546139 -0.696600025 0.023594376
15.19016378 -0.911188478 0.023265467999999997
15.19058322 -1.011658421 0.023375875
15.1905872 -0.645588819 0.021015627999999998
15.195074499999999 -0.8530476020000001 0.022208976000000002
15.20189054 -0.894102155 0.021743724
15.22490666 -0.843615661 0.022102422000000004
15.234897 -0.9853571040000001 0.021738947999999998
15.24181321 -0.773944112 0.02343455
15.25175086 -0.947196598 0.023107206
15.253090900000002 -0.7758691329999999 0.023400377000000003
15.25598914 -1.0739420990000001 0.021769567000000004
15.2944467 -0.712276331 0.02222035
15.29766846 -1.04604562 0.023069302000000003
15.29953291 -0.907661232 0.022421307999999997
15.30201075 -0.75269878 0.022729017
15.30521382 -0.8970237740000001 0.021903235
15.30706579 -0.802967781 0.022768656
15.31859499 -0.810453854 0.021763851
15.33519909 -0.8283808029999999 0.022706333
15.33838331 -1.021536102 0.023398995
15.41286726 -0.8095470290000001 0.021459278999999998
15.42020312 -0.7602520909999999 0.021380824
15.42033549 -0.9438173590000001 0.023048653
15.4521167 -0.940424435 0.022942541
15.514955300000002 -0.726827723 0.021526482000000003
15.53536749 -0.780033615 0.022496057000000003
15.53545171 -1.0875834640000002 0.022837887999999997
15.55769543 -0.760316675 0.022402228
15.58682202 -1.08607761 0.021694676
15.59935194 -0.644452386 0.021651148999999998
15.62016856 -0.9041017 0.022360997999999997
15.794936400000001 -1.038007972 0.021947183
-0.008342559 -0.308963886 -0.000606529
-0.0072080569999999995 -0.26368236 -0.00017249
-0.006033189 -0.517636754 -0.000381849
-0.005846754 -0.435916264 1.47e-05
-0.000312764 -0.127422895 0.000142821
-0.000124669 -0.499744234 6.73e-05
0.00013539700000000002 -0.53613021 0.000106919
0.000275992 -0.318299344 -0.000135837
0.002368309 -0.172657898 0.000184505
0.026480031 -0.502985864 0.012049282
0.116584826 -0.48893966200000005 0.010278536
0.138078447 -0.497553065 0.011683883
0.14236359099999998 -0.594418921 -0.01151628
0.14777430800000002 -0.133184679 -0.011558808
0.149940594 -0.299593575 -0.01138068
0.153224915 -0.16963112800000002 -0.011047758999999999
0.161171222 -0.363854014 -0.010857303
0.231117584 -0.508647669 0.028974765
0.263510492 -0.372181935 0.031303687000000004
0.268006404 -0.152588895 0.050088057000000005
0.270328572 -0.255285851 0.050194813
0.273218646 -0.302266814 0.050237765999999996
0.293901174 -0.141615656 0.032270292
0.295973624 -0.137946199 0.048861663
0.296135327 -0.157038188 0.026421253999999998
0.297001869 -0.332979562 0.072024482
0.29761809100000003 -0.10311868 0.032215501
0.29774168300000003 -0.31884826899999996 0.06419423099999999
0.29792647699999997 -0.32376515699999997 0.025623913999999998
0.298555345 -0.14922954900000002 0.050330991
0.298900812 -0.14576149900000002 0.073763154
0.300048679 -0.6051589589999999 0.020559149
0.300993244 -0.32569331100000004 0.05784340599999999
0.30155492899999997 -0.410606935 0.044752052
0.307188 -0.57143835 0.016592576
0.322136118 -0.610029665 0.007310355
0.329938248 -0.378595477 0.010933758
0.34500156200000004 -0.20453297399999998 0.012156613
0.34499843799999996 -0.530778415 0.011054543
0.345099635 -0.40160603899999997 0.010422472
0.34544853600000003 -0.190022991 0.012139034
0.345765744 -0.155070658 0.010634156
0.346746913 -0.332123624 0.009851024
0.363840041 -0.603948862 0.011563324
0.37105924100000004 -0.10649108800000001 0.011963649
0.37826434 -0.495294412 0.011884871000000002
0.40034074399999997 -0.14376956800000001 0.012398886999999999
0.401569709 -0.136940605 0.012387333
0.402817825 -0.279727583 0.011566021999999999
0.41559909899999997 -0.139082151 0.01185648
0.44449123700000004 -0.547249413 0.012705528
0.44826598100000004 -0.5742117760000001 0.014188342
0.454599035 -0.224572169 0.011825991000000001
0.45696694 -0.494204553 0.01163023
0.459091572 -0.5245009970000001 0.01214515
0.460398198 -0.486149785 0.020399288999999998
0.46040319399999996 -0.565124426 0.012674173
0.46046015799999995 -0.626084471 0.011765678
0.460463921 -0.167542207 0.011743668999999998
0.46064029799999995 -0.38574408299999996 0.011985817
0.47678293200000005 -0.070117126 0.013535788
0.489552366 -0.19406969899999998 0.01216757
0.509713734 -0.369510551 0.01327483
0.5119402279999999 -0.266135787 0.011199521
0.518784768 -0.099738204 0.013433487
0.524064074 -0.434341155 0.028925718
0.53377704 -0.133815002 0.015376154
0.55026074 -0.576339574 0.0123973
0.555816112 -0.157367743 0.012890401000000001
0.5635639960000001 -0.50396319 0.011785895
0.575127033 -0.405467299 0.017010152
0.575184372 -0.36945386700000005 0.016481961
0.5754843479999999 -0.27735663899999996 0.01393643
0.575744923 -0.11529580199999999 0.01277943
0.577929946 -0.528296209 0.011766703
0.58129122 -0.613410068 0.012826562
0.587019783 -0.315667184 0.013453953000000001
0.588499946 -0.318899096 0.014429812
0.60000338 -0.34439364100000003 0.013932046000000002
0.604026449 -0.315269586 0.014863838999999998
0.612817967 -0.309037866 0.01189853
0.614784193 -0.142953423 0.012195402
0.626212526 -0.345761321 0.012384194
0.627795149 -0.15367246 0.012165428999999998
0.629575816 -0.206102046 0.016125113
0.631579249 -0.140807381 0.013115963999999999
0.633197629 -0.287777196 0.014251263
0.6370342929999999 -0.498996696 0.013008882
0.651665642 -0.10117188699999999 0.013495143000000001
0.656615072 -0.34676274 0.013752387
0.664429873 -0.097327544 0.011984787
0.6726947120000001 -0.36256912799999996 0.015183282
0.678429953 -0.254272746 0.014556403999999998
0.680076175 -0.21561540699999998 0.013043012
0.681660341 -0.57903963 0.013930111
0.690299915 -0.6011948979999999 0.010997891000000001
0.690345908 -0.12014247199999999 0.012903743999999998
0.6903511390000001 -0.24793840600000003 0.013045881
0.690432191 -0.42319047 0.011287523
0.690941492 -0.280191217 0.015032893
0.6921156829999999 -0.238725871 0.013517898
0.693621638 -0.550195225 0.013371563000000001
0.700490717 -0.299644841 0.013558693
0.707359009 -0.11524342 0.013820541
0.71082566 -0.198980861 0.014390584
0.7128800959999999 -0.300619417 0.013031935
0.714406005 -0.497111555 0.010315635
0.71817013 -0.14518335599999999 0.01479504
0.7477971109999999 -0.38959842100000003 0.013018475
0.750962638 -0.627082186 0.014249476
0.7527185690000001 -0.326951927 0.01342089
0.7543814109999999 -0.08984388300000001 0.015104827
0.761236384 -0.593257315 0.013201738999999999
0.7644880829999999 -0.353504384 0.01390161
0.776163094 -0.301783152 0.011364476
0.778972144 -0.17351205600000003 0.013165673000000001
0.7989748990000001 -0.21422016 0.012170651000000001
0.805253398 -0.165187649 0.012583839
0.805311605 -0.29229558 0.01272504
0.805362747 -0.199134477 0.014574285
0.8055346870000001 -0.554134079 0.016921651
0.805650875 -0.41595770299999996 0.016279517
0.805950135 -0.09908997800000001 0.014949056
0.807204395 -0.074254659 0.013453438
0.8140035720000001 -0.128814509 0.014468241000000001
0.8198950429999999 -0.089101995 0.014893043
0.821658016 -0.07989004400000001 0.014877119
0.823152565 -0.074119502 0.015354971
0.8291528579999999 -0.22697641600000001 0.01550568
0.832197417 -0.174921608 0.013484935
0.835095252 -0.508322044 0.012381483
0.8453804979999999 -0.179073552 0.01442311
0.8485360340000001 -0.160965015 0.014880753
0.8529275340000001 -0.22849954100000003 0.014453787
0.865401553 -0.506195843 0.015210461000000002
0.871898363 -0.092841583 0.015218832
0.8731769090000001 -0.089824051 0.015699305
0.8765279709999999 -0.368887119 0.013068861000000001
0.881190371 -0.111234584 0.01520937
0.9087264290000001 -0.078074287 0.013618838999999999
0.9159732429999999 -0.215095657 0.014235865
0.920378118 -0.176652698 0.014178919
0.920525719 -0.280565163 0.013806084
0.9206128490000001 -0.517464191 0.01211628
0.920718667 -0.43261264299999996 0.01885747
0.920830059 -0.32526197100000004 0.015807747
0.921009379 -0.080423305 0.0135819
0.938084678 -0.621349525 0.013640552
0.969240042 -0.427765191 0.019183896000000002
0.97449518 -0.378313666 0.014228975
0.981493175 -0.2406794 0.012588253999999998
1.0028210229999999 -0.128059607 0.016789349
1.003966186 -0.391021424 0.011707228
1.021554471 -0.361230214 0.014546385
1.027046034 -0.595437805 0.012348237
1.032067461 -0.606563538 0.015274511000000001
1.035561966 -0.416698946 0.017493048
1.03558771 -0.200248785 0.014811214
1.035815702 -0.356113071 0.016448831
1.0358492 -0.09983601199999999 0.01274564
1.036297834 -0.539365846 0.012256073999999999
1.0377189470000001 -0.252368475 0.012420205
1.040715783 -0.17467574600000002 0.015742261
1.0485778140000002 -0.607865918 0.011315697
1.051122656 -0.381563879 0.013009837
1.0640357390000001 -0.389156815 0.013952708999999999
1.070244524 -0.28366789800000003 0.013815376
1.0778795490000002 -0.15127379 0.01559656
1.085295068 -0.14493410699999998 0.012636585
1.0864351490000002 -0.589016651 0.015079925
1.089054383 -0.577790487 0.017011927
1.095083735 -0.24960149199999998 0.013209552
1.10706808 -0.076584901 -0.008851766
1.1108898740000002 -0.33500038600000004 0.014229541
1.115371215 -0.185389954 0.014537777
1.124525023 -0.589232901 0.018375414
1.133066742 -0.57743802 0.017357873
1.14771258 -0.554003865 0.01386663
1.150589534 -0.54833816 0.016293071
1.150643847 -0.309380193 0.011632048
1.150641998 -0.503328246 0.009894754
1.150816763 -0.139690195 0.012419767
1.150857242 -0.249477977 0.014494797
1.151835612 -0.232585536 0.013983772
1.154002299 -0.072751622 0.013799005
1.162411949 -0.37575636700000004 0.015086002
1.1694315579999999 -0.52003584 0.01473594
1.171825065 -0.348446033 0.013560335
1.173257295 -0.21556866 0.012919971
1.185259877 -0.292011184 0.012478291
1.188575891 -0.311662366 0.015907486999999998
1.193223647 -0.150987177 0.013271787
1.218439552 -0.6014675939999999 0.01222659
1.219779181 -0.6067584460000001 0.019553274
1.224976748 -0.615145304 0.00977977
1.23170437 -0.560598837 0.015556543999999999
1.234966067 -0.21037277399999998 0.012715483999999999
1.236059758 -0.6198157320000001 0.016585305
1.237170932 -0.495566541 0.019373587
1.239275018 -0.07182968299999999 0.014500426
1.240372319 -0.569246926 0.014562245
1.243687939 -0.156681721 0.01360357
1.25452015 -0.11146861300000001 0.015472457
1.264294889 -0.35293701899999996 0.015220608
1.265558299 -0.380749441 0.010364370999999999
1.2657473559999999 -0.241877545 0.015581363999999999
1.2660881590000002 -0.162594596 0.015492077
1.266623696 -0.618752696 0.017461825
1.2753582959999998 -0.09301931599999999 0.013919858
1.2803850190000001 -0.258269752 0.013598403
1.281377347 -0.329346332 0.012210315
1.282343858 -0.60787696 0.009098897
1.286476088 -0.418753738 0.01278141
1.287488983 -0.28687973699999997 0.013607352
1.2884931720000001 -0.251981391 0.012101345
1.290333595 -0.6036409460000001 0.020786568999999998
1.296387566 -0.160472116 0.015880096
1.303473497 -0.096613861 0.01334424
1.30458691 -0.227960726 0.014463788
1.308775231 -0.421541605 0.01466563
1.311827283 -0.237187276 0.01396279
1.313950074 -0.5057541289999999 0.019625632
1.316404883 -0.24932652100000002 0.011031485
1.322497341 -0.617255874 0.016304122
1.324421316 -0.345882505 0.016484127
1.328746707 -0.520080405 0.016663967
1.335032334 -0.131303991 0.012305311999999999
1.336067985 -0.082898403 0.01371311
1.3418704609999998 -0.506925845 0.0063530309999999994
1.346295726 -0.486472484 0.021941012000000003
1.3523298590000001 -0.1184587 0.016141285
1.36000754 -0.144002566 0.011750954
1.3641552609999998 -0.532214547 0.015587439
1.377553558 -0.37049112700000003 0.01585235
1.380654515 -0.282423908 0.013302396000000001
1.380700785 -0.604152681 0.025379255
1.38081372 -0.483974057 0.033058271
1.3809096790000002 -0.22633576100000002 0.015193245
1.38478008 -0.19027634699999998 0.014651701999999999
1.3896752719999999 -0.379405427 0.018264331
1.393455475 -0.577816098 0.009683792
1.395417545 -0.495877367 0.018375396999999998
1.397357779 -0.33880072299999997 0.015265381000000001
1.408906301 -0.36360799 0.012325833999999999
1.4097523719999998 -0.269123973 0.013193904
1.412790171 -0.358368287 0.014748484
1.414469166 -0.072432025 0.013936957
1.4240858630000002 -0.43543331 0.025539937999999998
1.426056274 -0.59942033 0.013020862
1.4371995819999999 -0.298982738 0.016068804
1.444156774 -0.377805503 0.012716064
1.44987944 -0.58292841 0.018296857
1.450842114 -0.381093536 0.018069247
1.455883055 -0.537339542 0.017250693
1.456807046 -0.190393008 0.01393184
1.4587369909999999 -0.5008583670000001 0.013783023
1.4595967380000001 -0.234249443 0.0144597
1.4605693169999998 -0.358655114 0.017524903999999997
1.4643705319999998 -0.609708735 0.009002856
1.466321328 -0.6067506229999999 0.0045983529999999995
1.472852016 -0.294857262 0.016437471000000002
1.473618684 -0.337866499 0.013553798999999998
1.475647613 -0.162091245 0.011886766000000002
1.477980488 -0.330932793 0.015973026
1.48827749 -0.12048046800000001 0.015217712
1.493423551 -0.403148578 0.012585612
1.4950335280000002 -0.49297080600000004 0.015122348
1.49576047 -0.07812352 0.015146501000000001
1.4958394330000002 -0.593117315 0.020113119
1.4958695530000001 -0.173719454 0.015252485
1.496026223 -0.400926952 0.014039737
1.4963381409999998 -0.383971451 0.019878871
1.500422675 -0.33616146 0.014441599
1.50139014 -0.22679869800000002 0.012363797
1.509542175 -0.202498912 0.015728532
1.510476362 -0.344914845 0.015883939
1.5119230080000001 -0.56010034 0.014653663999999999
1.5156146080000001 -0.41181172 0.016918723
1.5188359219999998 -0.18556705199999998 0.014703763
1.52052595 -0.379994093 0.012960531
1.528333485 -0.39965555399999997 0.013446343999999999
1.529103991 -0.579459351 0.014619874
1.530033575 -0.532429756 0.016029545
1.5409768830000001 -0.075448585 0.009626987
1.544103825 -0.24746805 0.014691253999999999
1.549723739 -0.114224051 0.015500952
1.556581335 -0.546989689 0.011566232
1.5665843830000001 -0.265510533 0.015126881000000002
1.5754787330000002 -0.36837431600000003 0.017165698
1.577105032 -0.598818058 0.01302175
1.5778502280000002 -0.56735691 0.014938415
1.578705381 -0.168453243 0.013514913
1.582520366 -0.07143324 0.014371738
1.583901971 -0.587230091 0.012986973999999998
1.589333579 -0.143315934 0.011987751000000001
1.592431036 -0.491963982 0.014807601
1.593941677 -0.24791804899999997 0.015507281000000001
1.5947424209999999 -0.074473945 0.011893758
1.5954662380000002 -0.581207849 0.015873105
1.601136197 -0.35480482799999996 0.017556046000000002
1.601972437 -0.542244394 0.009949815
1.603552509 -0.134384136 0.015350043999999998
1.605935046 -0.289041476 0.010631298999999999
1.606802875 -0.31334973899999996 0.013097665
1.60747892 -0.551677063 0.013848537
1.610699141 -0.299106586 0.015022198999999998
1.610828683 -0.381198084 0.014625148999999999
1.6109282530000002 -0.5827688670000001 0.015825053000000002
1.611045546 -0.18449812899999998 0.01538166
1.6111534809999999 -0.41239143799999994 0.016122868999999998
1.618768851 -0.48744931399999997 0.017158753
1.6221168419999998 -0.40494680299999997 0.01217321
1.622885776 -0.58475115 0.012858685
1.6284161209999999 -0.417555833 0.017538004
1.633286724 -0.18347678899999997 0.013843928
1.6369462780000001 -0.538061664 0.013250558999999999
1.638517979 -0.258001665 0.014886897
1.639277989 -0.310012715 0.013965388
1.6401709180000001 -0.276491449 0.011484241000000001
1.6456787959999999 -0.312247814 0.012971256
1.648151822 -0.329407009 0.016400281000000003
1.650308921 -0.213898838 0.019193894
1.651761089 -0.09384224199999999 0.015149712
1.662616232 -0.511659436 0.027786596
1.663380726 -0.49751890000000004 0.028256352000000002
1.673030096 -0.303655612 0.015802669
1.6746488819999998 -0.349153676 0.014871946
1.697597165 -0.145234194 0.016036198999999998
1.7005509280000002 -0.41179568200000005 0.014858218999999999
1.706965975 -0.598974748 0.013092846000000002
1.708289098 -0.621598256 0.007253729
1.715514019 -0.486375455 0.028565167000000002
1.721186972 -0.18865311699999998 0.011613603
1.723358739 -0.390383737 0.014760958000000001
1.725438534 -0.487515335 0.018768381
1.725879718 -0.530154824 0.012955391
1.7259304069999999 -0.079925833 0.015383461999999999
1.725982445 -0.273184895 0.013645228
1.7261725940000001 -0.50487972 0.025621361000000002
1.726211285 -0.36290121700000005 0.015209263999999998
1.727102044 -0.488674192 0.026088403
1.730491774 -0.400988743 0.014749786
1.7311929480000001 -0.19809332100000002 0.015009898999999998
1.7326649140000001 -0.23665129899999998 0.015048048999999999
1.7364644880000002 -0.488375554 0.022151847000000002
1.737111585 -0.175697711 0.016430905
1.739585713 -0.276332454 0.013116865
1.7431420709999998 -0.627793423 0.011543435
1.743855996 -0.521866604 0.015817331
1.7507517680000002 -0.085689133 0.012380902
1.756473561 -0.24649160399999998 0.012052261000000002
1.761184651 -0.186596465 0.013924526999999999
1.764017889 -0.29591712800000003 0.011594999
1.77512852 -0.503523835 0.030833263
1.77791165 -0.19864368899999998 0.017302081
1.77997589 -0.374754992 0.007237173
1.7834278469999998 -0.287046361 0.014940645
1.789036005 -0.158308004 0.014291324
1.7911069030000002 -0.524533801 0.020063192
1.7924617630000002 -0.101434137 0.013240113000000001
1.79499541 -0.23670158800000002 0.012894359
1.799075152 -0.53313224 0.015163992
1.8050787380000002 -0.196623363 0.015747263
1.81084225 -0.586011039 0.011766906
1.811427614 -0.424317502 0.01305014
1.8191288030000001 -0.37470717200000003 0.01150518
1.820427054 -0.591955338 0.014184661999999999
1.821039338 -0.513729119 0.01702472
1.821730719 -0.121389286 0.017562993
1.823817043 -0.169696945 0.015168116
1.82628699 -0.539426286 0.015083369
1.8268312709999999 -0.532540209 0.016050874
1.829866021 -0.092596737 0.012621778
1.833959394 -0.243228282 0.011311173999999998
1.83818177 -0.35715242 0.014842316000000001
1.84097485 -0.334858351 0.01578544
1.8410060819999998 -0.08308168 0.013552352
1.8410307959999999 -0.23719533 0.016652745
1.8412202359999998 -0.512543153 0.016958417
1.841728702 -0.492841624 0.017423835
1.8421855999999999 -0.10776313300000001 0.014063955
1.844180581 -0.48818291399999997 0.019851856
1.8454930669999998 -0.092091677 0.013547926
1.8490720930000002 -0.5976683 0.015074785
1.8498116740000001 -0.107669128 0.014039293999999999
1.850931175 -0.32698672300000003 0.011837638999999999
1.85158843 -0.37587331399999996 0.010425947
1.8564962569999999 -0.097460336 0.01205349
1.858439874 -0.60636558 0.017496301000000002
1.862257733 -0.5883212870000001 0.009650876999999999
1.8641633780000002 -0.17632947100000002 0.015534431999999999
1.864745735 -0.239409082 0.014137746000000001
1.865299786 -0.219021822 0.011671276999999999
1.867685654 -0.572123306 0.009615381
1.868326809 -0.290942255 0.017601552
1.869481774 -0.20133222399999998 0.018474162
1.870117412 -0.5283180279999999 0.018835836
1.87144657 -0.260019367 0.016580192
1.871955821 -0.579389036 0.007168614
1.875284841 -0.171318795 0.012563092
