# .PCD v0.7 - Point Cloud Data file format
VERSION 0.7
FIELDS x y z
SIZE 4 4 4
TYPE F F F
COUNT 1 1 1
WIDTH 1312
HEIGHT 1
VIEWPOINT 0 0 0 1 0 0 0
POINTS 1312
DATA ascii
13.36347198 4.09135437 2.151242971
13.36376572 4.05957222 2.044797897
13.36247158 4.020587921 1.932005048
13.36390495 4.016983986 1.916379809
13.36069107 3.966984987 1.776242852
13.37403965 4.092608452 2.159543753
13.36597252 4.00320816 1.869505286
13.37653732 4.053670883 2.036496878
13.3750639 4.009815216 1.892942786
13.37923908 4.047522068 2.004270792
13.37852669 3.982318163 1.807005048
13.39122581 4.064718246 2.06921196
13.39748287 4.094583035 2.160031796
13.38817883 3.994113684 1.846068025
13.40015793 4.090182304 2.14343071
13.39406776 4.010047913 1.892942786
13.39437485 3.978266001 1.799681067
13.39927292 4.002305984 1.876829028
13.41264343 4.047309399 1.996946216
13.41738796 4.06054306 2.053098917
13.42334557 4.09252739 2.167844772
13.42551899 4.073508263 2.094113827
13.43015003 4.054643154 2.036496878
13.43496227 4.070314407 2.085813761
13.43200588 4.019945145 1.924681067
13.4355011 4.039908886 1.988156915
13.43439198 4.004050255 1.869505286
13.43889046 4.021841526 1.932492852
13.44970322 4.13300705 2.263059616
13.44972038 4.13300705 2.279172897
13.44432545 4.076550007 2.102414846
13.43997955 4.022104263 1.940306306
13.436306 3.979468584 1.799681067
13.4350853 3.962467909 1.775755048
13.44825649 4.095083237 2.16052103
13.45060539 4.086867809 2.127317667
13.44400692 4.005729198 1.885129809
13.44907093 4.034643173 1.979857087
13.44852734 4.027704716 1.94079411
13.4511528 3.971657991 1.784055829
13.45652485 3.998451948 1.861692786
13.4633522 4.045372486 2.004758835
13.46683598 4.047537804 2.012570858
13.47643852 4.110292435 2.210813999
13.48041344 4.08380127 2.119505167
13.49094677 4.086802959 2.135617733
13.48518372 4.016414642 1.916868091
13.49263287 4.035366058 1.972531915
13.50294495 4.072587013 2.094113827
13.50807095 4.019132137 1.924681067
13.52192974 4.060956001 2.045774698
13.53360748 4.10993433 2.203488827
13.53747272 4.076822281 2.102902889
13.55474758 4.118375301 2.237181187
13.55414772 4.077589035 2.095579147
13.56343937 4.12466383 2.262570858
13.55029964 3.988552809 1.823606849
13.54949188 3.976052999 1.78454411
13.55825138 4.06539917 2.085813761
13.55054379 3.983997107 1.815306067
13.55421829 4.020699024 1.94079411
13.56212711 4.097546101 2.161984921
13.56424427 4.076088905 2.103392124
13.57858849 4.047727108 2.013547897
13.58246517 4.050210476 2.014036179
13.60843086 4.109917641 2.204466105
13.6002655 3.944452524 1.775755048
13.61959171 4.084951401 2.137083054
13.64331436 4.08655405 2.137570858
13.64536476 4.037183285 1.981809974
13.65064049 4.055606842 2.023313761
13.65452576 4.028428078 1.957884192
13.67073345 4.123111725 2.240109921
13.67427826 4.123529911 2.264036179
13.66390324 3.979521036 1.808469892
13.66819859 4.023850441 1.934445977
13.67605972 4.104192734 2.196653128
13.67556858 4.095507145 2.162961721
13.66806984 4.01722908 1.910520911
13.67427635 4.080252647 2.113156796
13.66518211 3.97697711 1.800657153
13.66843128 3.949850798 1.776242852
13.67961884 4.035856247 1.982298017
13.68458271 4.050467014 2.022825003
13.69484329 4.089437485 2.138547659
13.70531368 4.125598431 2.257199287
13.70553112 4.091379166 2.147336721
13.70395088 4.040901184 1.998899817
13.71338177 4.10471487 2.189328909
13.70226765 3.982053995 1.808957934
13.71559334 4.054283142 2.031613827
13.72234917 4.092834949 2.163450241
13.71665764 4.030816078 1.958859801
13.72963524 4.095046997 2.172239065
13.72591877 3.999019384 1.855832934
13.72500134 3.979898691 1.808957934
13.7312746 4.03942585 1.991086841
13.73412991 4.033966064 1.990599036
13.73771477 4.036821365 1.983275056
13.74046326 4.028923988 1.951048017
13.74782658 4.070916653 2.097531796
13.74378109 4.008419037 1.895383954
13.75717831 4.094950199 2.14880228
13.77134895 4.099058151 2.165402889
13.77143002 4.065898895 2.081418753
13.79349804 4.134988308 2.277219772
13.78783417 4.072969913 2.098509073
13.78985214 4.092353821 2.164914846
13.78183556 4.007137775 1.895871997
13.78327942 4.021332264 1.935422778
13.77925873 3.97663188 1.801633954
13.78672218 4.043044567 1.992551923
13.79191399 4.096375942 2.157591105
13.78181648 3.983407736 1.817258954
13.79365253 4.04319191 2.000363827
13.8193121 4.128749371 2.26843071
13.8144722 4.04188633 2.008176804
13.82090282 4.039280415 1.992551923
13.83369827 4.098639011 2.174680471
13.82510757 3.978570223 1.802121997
13.83753967 4.102869987 2.183470011
13.84904575 4.117312431 2.243040085
13.85552883 4.075613976 2.099973679
13.84906864 3.999347925 1.849974036
13.85936832 4.079844952 2.108763218
13.85626888 4.012738228 1.920285821
13.86774063 4.027179241 1.945189118
13.87316608 4.046292305 2.017942905
13.87096786 4.016103745 1.905638099
13.87222004 4.01530695 1.912962079
13.87849426 4.062970161 2.067258835
13.88596439 4.032711983 1.977415204
13.89941597 4.099697113 2.192747355
13.89427471 4.02507019 1.945676923
13.89387226 4.0069561 1.897336841
13.905159 4.103078365 2.185423136
13.90219307 4.072254181 2.100461721
13.89323711 3.97978282 1.795285821
13.89411736 3.988786936 1.818724036
13.89783764 4.023740292 1.945189118
13.89373398 3.976603746 1.80261004
13.90683556 4.094917774 2.160031796
13.90168285 4.010174274 1.912962079
13.91418457 4.063970089 2.068234682
13.91677761 4.057134151 2.043332815
13.92341709 4.051720142 2.027219772
13.92905903 4.091755867 2.167844772
13.92203903 4.004366875 1.889525056
13.93450928 4.132851124 2.280637741
13.92656803 4.020410061 1.937863946
13.94814777 4.05708313 2.044309855
13.9438858 4.011006355 1.906125903
13.96315098 4.109286308 2.212277889
13.9542551 4.015068531 1.922238946
13.96588421 4.004719257 1.88268888
13.97065639 4.016204834 1.922728181
13.98586464 4.107131004 2.196165085
13.98481655 4.002517223 1.88268888
13.98791981 3.996684313 1.851439118
13.99332428 3.986135244 1.82751286
14.00192928 4.068860054 2.078977585
14.00305843 3.994436026 1.859251142
14.01962852 4.103050232 2.180539608
14.00733089 3.973505259 1.796263099
14.01129818 4.01402092 1.907590985
14.01605225 4.062852383 2.062375784
14.01955414 4.094680786 2.162961721
14.00984478 3.982029676 1.812375903
14.01394939 4.023233414 1.939818025
14.02822208 4.132380962 2.283567429
14.0279541 4.095409393 2.163450241
14.02790642 4.000486851 1.875852942
14.04103661 4.093322277 2.15563798
14.04569817 4.092254162 2.171750546
14.04757118 4.088624001 2.137551785
14.05081463 4.056597233 2.038450003
14.04329872 3.968201876 1.781125903
14.06182098 4.099697113 2.189328909
14.05397892 3.993875742 1.844602942
14.05941868 4.036720276 1.989133954
14.07312775 4.042259216 1.990109801
14.08148766 4.093944073 2.156613827
14.0877533 4.056802273 2.047727823
14.088974 4.0322752 1.965696216
14.08571339 3.995889425 1.852903008
14.10431004 4.088291168 2.156613827
14.09825802 4.000478268 1.884642243
14.10767269 3.973553896 1.789914966
14.12418747 4.115326881 2.218625546
14.11736393 3.995466948 1.853392243
14.13105869 4.06976223 2.090696096
14.12577724 4.013992786 1.910032153
14.12117004 3.965850592 1.782102942
14.12324142 3.981738806 1.813841224
14.13588047 4.109163284 2.209836721
14.13049603 4.027228355 1.942746997
14.1273241 3.987346888 1.829954028
14.13710022 4.072771072 2.098996878
14.14275074 4.093261242 2.158567905
14.13246441 3.977168322 1.821165204
14.15213203 4.123226643 2.253781796
14.14852715 4.047432423 2.016477823
14.15284634 4.091762543 2.166867971
14.16937351 4.087656021 2.159055948
14.16744614 4.03336525 1.975461841
14.17944813 4.121753216 2.238156796
14.17961693 4.053686142 2.034055948
14.19022655 4.126131058 2.264036179
14.17905998 3.987420797 1.830443025
14.18514538 4.037892342 2.000363827
14.18371773 4.016018391 1.919309735
14.18955803 3.998104334 1.870482087
14.19695377 4.056146145 2.050656796
14.21008015 4.014968395 1.911496997
14.2119875 4.033662796 1.984739184
14.22331715 4.116172314 2.239133835
14.21844578 4.023376942 1.936399817
14.22423267 4.05642128 2.043332815
14.24718475 4.087052822 2.145383596
14.24874973 4.10193491 2.188353062
14.2392807 4.002525806 1.871945977
14.23722744 3.978956938 1.800168872
14.24217892 4.024980545 1.945189118
14.2369175 3.969210386 1.784055829
14.24734783 4.07553196 2.100930929
14.25026131 4.094834328 2.162961721
14.24824429 4.051720142 2.03552103
14.2484169 3.985058069 1.821145177
14.26288891 4.058582306 2.053098917
14.27458572 4.070217133 2.095090628
14.28402901 4.096685886 2.164427042
14.28893566 4.091063499 2.172239065
14.28418255 4.028618813 1.946653008
14.28330517 3.989952803 1.848508954
14.28622341 3.986929178 1.840208173
14.29534245 4.070659161 2.087766886
14.29838943 4.068324089 2.087766886
14.29282379 4.006994247 1.889525056
14.29920673 4.037547112 1.98766911
14.30971336 4.077893257 2.113645792
14.31965923 4.107115269 2.208859921
14.32726383 4.11314249 2.226438999
14.32664204 4.074104309 2.105833292
14.31874657 3.983644724 1.825070977
14.33120918 4.082465649 2.13171196
14.32207394 3.975004911 1.808957934
14.33541012 4.08876276 2.149290323
14.33619881 4.059733868 2.063840866
14.3337059 3.970588923 1.78552115
14.3638792 4.133264542 2.281613827
14.35099697 3.980731726 1.817746997
14.36301994 4.098782063 2.176145792
14.35522175 4.016691208 1.931517005
14.36132622 4.077279091 2.10778594
14.35633659 4.021139145 1.939818025
14.36740494 4.127748966 2.27233696
14.35350227 3.983323336 1.809934974
14.35350895 3.977390051 1.802121997
14.3589201 3.996504068 1.858275056
14.36996937 4.097182274 2.160031796
14.37023449 4.049349308 2.023313761
14.38928986 4.132638931 2.282590866
14.3793993 3.973586798 1.794309974
14.39155865 4.092325211 2.168332815
14.39983177 4.133894444 2.266478062
14.38613987 3.976542711 1.818235278
14.40277004 4.130868912 2.274777889
14.40633488 4.129539967 2.274777889
14.417243 4.097262859 2.17858696
14.42613411 4.075265884 2.093626022
14.43160343 4.092632294 2.161984921
14.43721962 4.041928768 2.008664846
14.44774151 4.039000034 2.000363827
14.45290375 3.995662451 1.852415204
14.45534229 3.989883661 1.836302161
14.46819878 4.065291882 2.07751298
14.46809006 4.003530025 1.893431067
14.47343826 4.055801868 2.052122116
14.46550846 3.973023176 1.795775056
14.46707153 3.987905264 1.836302161
14.47821808 4.102885246 2.190306187
14.47756386 4.095257282 2.156126022
14.46877766 3.983929873 1.812375903
14.4729681 4.021636486 1.935422778
14.49273872 4.091261387 2.156126022
14.49863434 4.08939743 2.164427042
14.49410725 4.030076981 1.969113946
14.50800323 3.98534894 1.829465747
14.50807571 3.975919008 1.796751142
14.52255058 4.111923218 2.210813999
14.52747059 4.122350216 2.237668991
14.52960777 4.069482803 2.080442905
14.53944874 4.127681255 2.264524937
14.53306103 4.024188519 1.937376142
14.53041363 3.991245031 1.846068025
14.54537392 4.130000591 2.273801804
14.55501938 4.0688591 2.081418753
14.55046368 3.999421835 1.871458173
14.56384945 4.099567413 2.18591094
14.56031132 4.020277023 1.92956388
14.57108116 4.024656296 1.946653008
14.57913876 3.997840166 1.855832934
14.59232616 4.100792408 2.179074764
14.58153248 3.987876654 1.823118091
14.58951092 4.068908215 2.082883835
14.58544254 4.024208546 1.906614184
14.58180428 3.981573343 1.798704028
14.58122063 3.972198725 1.790403008
14.59380341 4.095438957 2.161497116
14.58895302 4.02637434 1.939329028
14.60043907 4.085841656 2.16882062
14.60695171 4.103468895 2.205442905
14.5976429 3.992882967 1.89636004
14.60083961 4.007285118 1.930052161
14.60310268 4.020366192 1.947142005
14.60513115 4.039749146 2.022825003
14.60966682 4.085455418 2.152708054
14.9512949 4.100523949 2.233762741
14.95359325 4.088124752 2.180539608
14.95261002 4.064819813 2.099973679
14.94523525 3.969433069 1.807005048
14.94896603 4.002639294 1.900266767
14.95084858 4.015402317 1.934934974
14.95189857 3.980068922 1.81579411
14.96938801 4.054411411 2.048703671
14.97375679 3.998573065 1.875852942
14.98432064 4.072766304 2.102902889
14.9853878 4.043366909 2.014524937
14.99611473 3.982486963 1.825559974
15.02227688 4.027522087 1.972531915
15.01920509 3.988329172 1.843138099
15.03429317 4.060767174 2.069699764
15.03719902 4.04587841 2.017453909
15.04754353 4.069486141 2.097531796
15.03852272 3.974576712 1.801145911
15.04078102 3.995338202 1.869505286
15.05152607 4.104069233 2.20593071
15.05060196 4.090880871 2.169310093
15.04367352 4.017793179 1.938352942
15.04088306 3.978228807 1.809934974
15.05708981 4.110257149 2.224484921
15.05791759 4.018406391 1.939329028
15.06316853 4.038579464 2.000853062
15.0692625 3.984698057 1.836302161
15.070858 3.980034113 1.819212079
15.08625126 4.099562168 2.190306187
15.08316803 4.024773121 1.957884192
15.0944128 4.092981339 2.172239065
15.12983513 4.051075935 2.039426804
15.137537 4.083270073 2.139035702
15.15861416 4.069727898 2.095090628
15.16391277 4.088152885 2.158567905
15.15629864 4.009187222 1.908568025
15.15742683 4.019567966 1.943235278
15.15308094 3.971053362 1.795775056
15.16598892 4.104041576 2.196165085
15.16519356 4.09153986 2.167844772
15.16434383 4.080790043 2.13171196
15.15671349 3.978092432 1.80456388
15.16173077 4.002822399 1.88268888
15.16740131 3.980035543 1.813352942
15.17298508 4.015886784 1.926633954
15.18369484 4.047492504 2.033079147
15.17833614 3.989288092 1.848508954
15.18885136 4.053363323 2.042844772
15.18710232 3.998012781 1.874875903
15.19330883 3.999961615 1.883664966
15.2142868 4.082402706 2.14343071
15.23598289 4.119765282 2.247434616
15.23214245 4.030727863 1.982298017
15.24314499 4.097558975 2.191282034
15.24987125 4.118311882 2.248410702
15.23829651 3.979284048 1.807005048
15.25050068 4.078476906 2.136594534
15.25851536 4.11448431 2.239621639
15.2612257 4.096469879 2.183957815
15.26503372 4.041375637 2.010617733
15.26098442 3.972944021 1.790403008
15.26892757 3.988715887 1.851439118
15.2781105 4.082564354 2.147824526
15.27656746 4.065932751 2.083859921
15.2799902 4.101258755 2.194700003
15.26819515 3.972719908 1.799193025
15.27928352 4.085263252 2.165891647
15.27091026 3.978436708 1.807982087
15.27697086 4.022974968 1.940306306
15.29617786 4.09333992 2.159055948
15.29823971 4.093178272 2.177121639
15.29242516 4.012672901 1.922728181
15.29183388 3.98968482 1.834837079
15.29093933 3.976496935 1.825559974
15.29862309 4.014623165 1.923215985
15.30851173 4.100736141 2.187376261
15.30053043 4.001907349 1.879270911
15.31200886 4.091037273 2.177609682
15.32551479 4.087519169 2.151242971
15.33101082 4.097202778 2.188840866
15.3220911 3.973320723 1.800657153
15.35302925 4.126512527 2.275267124
15.35055542 4.055166245 2.060423136
15.35178852 4.005161285 1.89001286
15.35325432 3.976077795 1.801633954
15.3585844 3.98682189 1.836789966
15.36859703 4.000684261 1.881712079
15.37846565 4.051201344 2.035031796
15.38903332 4.107597351 2.221067905
15.38174725 3.971369982 1.793820977
15.38573074 4.011885166 1.917844892
15.39314938 4.087726593 2.164914846
15.39491177 4.105732918 2.212277889
15.39339161 4.083171368 2.155150175
15.38351917 3.977512121 1.82018888
15.38857269 4.018290043 1.935911059
15.38506222 3.980528116 1.811400056
15.39218998 3.971935987 1.793820977
15.43283844 4.11563015 2.234251022
15.43939209 4.028907299 1.965696216
15.43680668 3.974670172 1.804075122
15.44439411 4.035838127 1.984250903
15.45410442 4.008542061 1.903195739
15.47019482 4.096605778 2.171262741
15.4615984 3.990150213 1.867064118
15.47529697 4.100039959 2.199095011
15.48514748 4.053887367 2.050168991
15.49569798 4.110282898 2.220091343
15.50716972 4.126473427 2.287473679
15.49522495 3.985380888 1.832884192
15.49922371 4.000418186 1.869017005
15.50765705 4.085950375 2.154172897
15.4946394 3.948091269 1.78698504
15.50959206 4.102898121 2.211301804
15.50874043 4.09214592 2.173215866
15.50022125 3.980445623 1.815306067
15.50509548 4.018100262 1.941281915
15.5081768 4.031814098 1.97790277
15.51859379 4.034128189 1.996946216
15.51684093 3.996575117 1.869505286
15.53460026 4.096024036 2.19421196
15.52836514 3.985539198 1.842649817
15.54776669 4.029366016 1.988645911
15.5585289 4.088887691 2.176633835
15.55961895 4.093334675 2.159055948
15.5608511 3.984001875 1.834837079
15.57819748 4.07720089 2.130734682
15.57662773 4.001245022 1.89001286
15.58666515 4.068500042 2.094113827
15.60291767 4.125840187 2.286496639
15.62623405 4.127127171 2.279172897
15.62293243 4.092490196 2.172239065
15.6119051 3.97819829 1.818724036
15.61194038 3.976450205 1.809934974
15.6206007 4.063360214 2.086790085
15.62730408 4.127389908 2.26989603
15.61721611 4.014421463 1.937376142
15.61694908 3.977447748 1.818724036
15.61853695 3.978716612 1.809934974
15.62582111 4.042005062 2.012082815
15.63622665 4.093527317 2.182981968
15.63446426 3.97116971 1.792356849
15.6549778 4.080519199 2.136594534
15.67268276 4.047702312 2.033567905
15.68046951 4.076399326 2.128782034
15.68246555 4.040640831 1.996946216
15.69606495 4.126111984 2.285031796
15.70369434 4.100727081 2.20739603
15.70464993 4.057024956 2.054563999
15.70433903 3.992138147 1.85876286
15.72606659 4.114302635 2.248410702
15.73303032 4.075360298 2.113645792
15.73982048 4.118094921 2.249875546
15.7267046 3.981982946 1.831906915
15.73620224 4.067779541 2.103880167
15.73227501 4.017836571 1.933957934
15.73786449 4.059619904 2.066282034
15.74160862 4.092824936 2.171750546
15.73121166 3.980228662 1.813841224
15.73100853 3.977102518 1.80456388
15.74063969 4.014378071 1.92516911
15.74555588 3.983277559 1.841673017
15.75109291 4.032742023 1.981809974
15.7532959 3.988242388 1.832884192
15.77362728 4.045259953 2.020871878
15.7752037 4.01686573 1.926633954
15.77991962 4.055578232 2.058957815
15.78248405 3.977549791 1.824582934
15.78835106 4.030827045 1.983763099
15.79009151 4.001374245 1.89001286
15.80697346 4.054475307 2.060423136
15.81937408 4.125380993 2.276242733
15.81028557 3.984761 1.834837079
15.84946728 4.066800117 2.092650175
15.84274197 3.996837854 1.873411059
15.85335827 4.104879856 2.200559855
15.8406868 3.973269224 1.798704028
15.84168911 3.982961893 1.826535821
15.85324287 4.092326164 2.170774698
15.84612179 4.016114235 1.939329028
15.85355759 4.011333942 1.920775056
15.8507328 3.979450941 1.817746997
15.87647057 3.976707697 1.818724036
15.89403152 4.114559174 2.243040085
15.8935194 4.06434536 2.085813761
15.91025066 4.051497936 2.05749321
15.92259502 4.082625389 2.156126022
15.91306973 3.973098993 1.801145911
15.93323326 4.092247963 2.177121639
15.92527294 3.973873854 1.801633954
15.9401598 4.110194206 2.227415085
15.94990063 4.057420254 2.070188761
15.95758343 4.083681107 2.13952446
15.96525574 4.111689568 2.239133835
15.95489407 3.973613024 1.81188786
15.96804619 4.10797596 2.219603062
15.96567059 4.074663162 2.120481968
15.9677248 4.092298031 2.179563761
15.96002674 4.010895252 1.916379809
15.96822262 4.081438065 2.130734682
15.96238995 4.020480156 1.945189118
15.98279858 4.073998928 2.121457815
15.9873724 3.978009939 1.813352942
16.03432083 4.120158195 2.265501022
16.02978134 3.976033926 1.805052161
16.03922653 4.051712513 2.036984921
16.04513359 4.061714172 2.086301804
16.04982948 3.972345114 1.796263099
16.08050728 4.088564873 2.159055948
16.08429718 4.125956059 2.280637741
16.07197571 3.996410608 1.873411059
16.07039833 3.975597143 1.806517005
16.08388519 4.113772869 2.239621639
16.08190918 4.092640877 2.169310093
16.0799408 4.059644222 2.078977585
16.07599068 4.017381191 1.941281915
16.0780735 3.978125811 1.807005048
16.10476112 4.103039265 2.201047659
16.09882545 4.009981155 1.913449883
16.10083008 4.005634308 1.903685212
16.12698174 3.977728605 1.818235278
16.13034248 3.985139608 1.837278247
16.15574646 4.112597466 2.236203671
16.16174698 4.105487823 2.216184616
16.1773243 4.125539303 2.279172897
16.17783737 4.059537888 2.065793514
16.19444084 4.101145267 2.208371878
16.18764877 4.009199619 1.908079267
16.19760513 4.111363411 2.239621639
16.18858147 4.01645565 1.937376142
16.19489861 4.074235916 2.117063522
16.19670677 4.09049511 2.167844772
16.18821716 4.002524853 1.89831388
16.18648529 3.976837873 1.82018888
16.18683243 3.97296977 1.800657153
16.20972061 4.042694092 2.017942905
16.24401855 3.990410089 1.851439118
16.25962067 4.023729801 1.954445958
16.29395103 4.108240128 2.227415085
16.28286552 3.977897882 1.813841224
16.31292534 4.122087002 2.270872116
16.31018639 4.092639923 2.177121639
16.30687904 4.058002472 2.064328909
16.30285454 4.007369995 1.913449883
16.30417633 4.014942646 1.933469892
16.30107117 3.977498293 1.81432879
16.32052422 4.116248131 2.250852585
16.31423378 3.977847815 1.814818025
16.31570625 3.98435998 1.825070977
16.33190536 4.031582832 1.975461841
16.36408806 4.038098335 2.007199764
16.36516571 3.983219862 1.827025056
16.4017067 3.977174997 1.818235278
16.40935326 4.048460007 2.040891647
16.42274666 4.12312603 2.26061821
16.41716766 4.014335155 1.929075122
16.41717911 4.014335155 1.939329028
16.42430687 4.08602047 2.151222944
16.42966652 4.123274326 2.261106968
16.42889404 4.091228008 2.166380167
16.41890144 3.973016024 1.798704028
16.42675018 4.023695469 1.970090985
16.43487358 4.042592049 2.021848917
16.44027901 3.976899862 1.819700122
16.45254898 4.023388386 1.961789966
16.45202065 4.010516644 1.920775056
16.48732567 4.096005917 2.191770792
16.48500061 3.974390268 1.801145911
16.49372482 3.978931665 1.811400056
16.5056591 4.058950424 2.067747116
16.5316391 4.075381756 2.121945858
16.5302372 3.998365641 1.883664966
16.54061508 4.105030537 2.20739603
16.53791618 4.073835373 2.112180948
16.52834892 3.973737955 1.812863946
16.53288651 4.019443035 1.945676923
16.54465675 4.100521088 2.197141886
16.54512787 4.091409206 2.165402889
16.54100609 4.020542145 1.946165204
16.54547691 3.98493886 1.843625903
16.55908585 4.080528259 2.134641886
16.55294228 3.978411913 1.813841224
16.5631485 3.989465952 1.844602942
16.56559944 3.977755308 1.82409513
16.59501839 4.094771385 2.169797897
16.58917809 4.021946907 1.948606849
16.60291672 4.078444004 2.179563761
16.60572052 4.083816051 2.214699745
16.60721016 4.081244469 2.200559855
16.60244942 4.014616489 1.989621997
16.60858727 4.075203419 2.200070858
16.63314629 4.041957855 2.024808884
16.65579796 4.096692085 2.171293974
16.65368652 4.033344269 1.975493073
16.66062737 4.063155174 2.073148727
16.65549469 3.976663351 1.805082917
16.66347694 4.008485317 1.902251124
16.70410156 4.092853546 2.168852091
16.73677444 3.97825408 1.811634898
16.76081657 3.991323233 1.851469874
16.78421021 4.099396229 2.189359903
16.78412628 4.09102726 2.164946318
16.78154564 4.060521126 2.068266153
16.77914047 3.973812819 1.802641034
16.83265877 4.021557331 1.945707917
16.85280991 4.128841877 2.283110142
16.87569809 3.997545004 1.872465968
16.88731003 3.96578908 1.80456388
16.90028381 4.088772297 2.159574747
16.90296936 4.096236229 2.183500767
16.91256714 4.019043446 1.943266034
16.95105171 3.978987455 1.799712062
17.31778908 4.092798233 2.196653128
17.32302666 4.112971306 2.244504929
17.3188858 4.061650276 2.09313798
17.31499863 3.998091936 1.887570977
17.32236481 4.01460743 1.933469892
17.3200264 3.97361207 1.809445977
17.32214928 3.97588563 1.820676923
17.33876419 4.064954281 2.094602823
17.34217453 4.088415146 2.164427042
17.33218956 3.98206687 1.832395911
17.3446312 4.106367111 2.22302103
17.33242989 3.977511168 1.821165204
17.33893013 4.014686108 1.934445977
17.33738708 3.974323988 1.809934974
17.34993935 4.026373386 1.969113946
17.37100792 4.050176144 2.050656796
-0.5895886421 -4.028752804 2.838377953
-0.3654742837 -3.99039793 2.795898438
-0.2490430325 -3.997208834 2.811522961
-0.1412689537 -4.000191212 2.823241711
-0.1314904392 -4.009689331 2.850096703
-0.07221759856 -4.002668858 2.837747097
-0.02685026824 -4.003485203 2.829445839
0.0294343438 -4.012503147 2.849974155
0.08633031696 -4.015270233 2.861183643
0.1922079623 -3.994730949 2.806984901
0.3424625993 -3.997254133 2.809426785
0.3816322088 -4.008388996 2.853372097
0.4191918671 -3.988003016 2.784035683
0.4312160015 -4.004654884 2.833351612
0.4308552742 -4.010904789 2.854347706
0.4389516115 -3.999688148 2.821145058
0.4592224658 -3.996067286 2.816750526
0.5314415097 -4.00948 2.854347706
0.61451298 -4.003523827 2.838235378
0.7409648895 -3.999970198 2.824074745
0.7540182471 -4.00030899 2.830910683
0.7761183977 -3.989857197 2.796730995
0.8354756832 -3.999805927 2.82602787
0.8654087782 -4.006370068 2.849954128
0.889099896 -4.008951187 2.84653616
0.9103108048 -3.995637178 2.811868191
0.9181500673 -4.008467674 2.850441933
0.9995887876 -3.997848988 2.815773964
1.003238916 -4.011044025 2.864113808
1.071016073 -3.997595072 2.82212162
1.216809034 -3.995925188 2.815773964
1.234160066 -3.995212078 2.804055691
1.296018362 -3.992452145 2.81137991
1.320738673 -4.011508942 2.865578651
1.379013658 -4.007419109 2.855813026
1.434875727 -4.009418011 2.856301785
1.459398746 -3.988694191 2.79477787
1.462475181 -4.00114584 2.832376003
1.465570092 -4.009414196 2.860695839
1.499817252 -3.996440172 2.817238808
1.518554926 -3.991650105 2.804055691
1.952255487 -3.996119022 2.801126003
1.964682341 -3.998152256 2.817238808
2.000346184 -3.99121809 2.810890675
2.034688473 -3.996041059 2.808938026
2.036421299 -3.989899158 2.798195839
2.090300798 -4.00778532 2.848488808
2.103960752 -3.996312141 2.818703651
2.107136011 -3.997960091 2.82700491
2.150683641 -4.001420975 2.831888199
2.184381962 -4.0020051 2.837258816
2.194395065 -3.991640091 2.800148964
2.280177116 -3.990085125 2.800148964
2.299507141 -4.010457039 2.863137722
2.380091429 -4.002907753 2.84555912
2.418715715 -4.004930019 2.851418972
2.472024441 -3.993469954 2.819191933
2.486738205 -4.000221252 2.828958035
2.493187904 -4.00701189 2.855325222
2.503574133 -3.990396023 2.807961941
2.52352953 -4.009073734 2.862160683
2.579625368 -3.995393038 2.821633816
2.608961105 -3.995282173 2.827980518
2.628092051 -4.004477024 2.84653616
2.686092854 -4.000015736 2.842141151
2.70117712 -4.000517845 2.84165287
2.712897301 -4.006681919 2.859719753
2.795562983 -4.001041889 2.838235378
2.810376644 -4.001173019 2.84555912
2.88314724 -4.005209923 2.861672878
2.905064106 -3.997884035 2.833840847
2.919867277 -3.998013973 2.833351612
2.932640314 -3.993798018 2.815773964
3.016915083 -4.001192093 2.84165287
3.032190561 -3.998568058 2.840188026
3.144932508 -3.990436077 2.812844753
3.159430027 -3.998563051 2.840188026
3.244920731 -3.996637106 2.832376003
3.259888887 -3.997826099 2.832863808
3.376371861 -3.99208498 2.817727089
3.410436392 -4.000720978 2.846047878
3.470983267 -3.995417118 2.829933643
3.477986813 -3.988648176 2.811868191
3.603716612 -3.997594118 2.837258816
3.640613079 -3.991455793 2.820656776
3.729104519 -3.990116835 2.809426785
3.834933043 -3.996435165 2.827492714
3.894367695 -3.991050243 2.837767124
3.918519497 -4.000995159 2.835813999
3.987481594 -3.990779161 2.807004929
4.111164093 -4.003745079 2.851926804
4.214612007 -3.993479013 2.819699764
4.283399105 -4.00346899 2.85727787
4.314972401 -3.996210098 2.84165287
4.324191093 -4.000781059 2.84409523
4.327212334 -3.997184038 2.83481741
4.330649853 -4.003386974 2.854347706
4.469554424 -3.989311934 2.799172878
4.556818008 -3.991361141 2.828469276
4.583591938 -3.99209404 2.832376003
4.671274662 -3.995573282 2.837258816
4.689357281 -4.000846863 2.858742714
4.739957809 -3.999287128 2.848488808
4.767345905 -3.988208055 2.823098183
4.852344036 -3.997405052 2.847512722
6.047989845 -3.989530087 2.81530571
6.162414551 -4.002111912 2.848996639
6.624498844 -4.006042957 2.861692905
6.639537811 -4.004796982 2.859738827
6.645645142 -3.997946024 2.84555912
6.780331612 -3.992604256 2.827492714
6.784736156 -3.999232054 2.851418972
7.192096233 -3.998466015 2.851418972
7.306704521 -3.993621111 2.837747097
7.422344208 -4.001066685 2.860695839
7.469994545 -4.000668049 2.857765675
7.536683559 -3.991666079 2.833351612
7.653017521 -3.99498105 2.843605995
7.802770138 -3.99850893 2.859719753
7.880429745 -3.995274305 2.845090866
7.993290901 -4.000754833 2.855345249
7.994232655 -3.991062164 2.827024937
8.109073639 -3.999143124 2.849974155
8.250011444 -3.993599176 2.840696335
8.259730339 -4.001348019 2.853392124
8.345892906 -3.989358187 2.825559616
8.435195923 -4.00168705 2.864622116
8.452348709 -3.993981123 2.835324764
8.762127876 -3.995228052 2.837767124
8.795649529 -3.99893713 2.857297897
8.860640526 -4.002009869 2.859738827
8.910945892 -3.989962101 2.826047897
9.024777412 -3.995868921 2.845578671
9.032259941 -3.996464252 2.844603062
9.135522842 -3.996285915 2.855813026
9.368667603 -3.995976925 2.850441933
9.483792305 -3.990126848 2.838723183
9.827832222 -3.9927001 2.847512722
9.919413567 -3.996851206 2.848508835
9.985924721 -3.990973234 2.837767124
9.990937233 -4.00009203 2.860715389
10.04869461 -3.997009039 2.851926804
10.05636978 -3.994478226 2.849974155
10.1370945 -3.992172956 2.838255405
10.21632099 -3.998817921 2.860715389
10.55889702 -3.997787952 2.856809616
10.67289543 -3.990452051 2.840696335
10.84198475 -3.995865107 2.86218071
10.85820866 -3.993667126 2.849974155
11.6639576 -3.989758968 2.850930691
11.78159428 -3.991433144 2.847512722
11.95151901 -3.995181799 2.849485397
12.00552845 -3.993893147 2.847043991
12.08784866 -3.990319967 2.833859444
12.11734867 -3.991267204 2.842161179
12.25552654 -3.993877172 2.848996639
12.2896347 -3.989960909 2.838255405
12.46298885 -3.988389015 2.826535702
12.5647192 -3.988447189 2.845090866
12.57722187 -3.993978024 2.847043991
12.69216824 -3.991250992 2.847043991
12.90062141 -3.996304989 2.862668991
12.96955585 -3.990272999 2.83483696
12.99514103 -3.991957903 2.845578671
13.035429 -3.990276098 2.846556187
13.15458107 -3.997303963 2.863156796
13.22920704 -3.990326881 2.846067905
13.37946892 -3.992848158 2.855345249
13.64926624 -3.991964102 2.854856491
13.8378067 -3.994390249 2.852415085
14.29787922 -3.989792109 2.83874321
14.30057716 -3.988260269 2.858762741
14.35291672 -3.990675211 2.855345249
14.37957287 -3.992096901 2.858762741
14.41094685 -3.992148161 2.862668991
14.63995457 -3.989767075 2.849485397
14.92131329 -3.989801168 2.844603062
14.985425 -3.990013123 2.853392124
15.09802532 -3.990936995 2.858762741
15.2073431 -3.990902901 2.863645554
15.21404552 -3.987949133 2.852902889
15.49851513 -3.992067099 2.862668991
15.69372177 -3.989791155 2.857785702
-0.5780608654 -3.876537085 2.419920921
-0.5727648139 -3.844869852 2.293457031
-0.5748835802 -3.869815111 2.378417015
-0.5821473598 -3.962024212 2.639647961
-0.5831238031 -3.974152088 2.70458889
-0.5796356201 -3.940945148 2.574217319
-0.4815403521 -3.86467123 2.424803734
-0.4759506881 -3.903136015 2.536620617
-0.4743610919 -3.887564898 2.492674828
-0.4821861088 -3.983216047 2.779784679
-0.4677066207 -3.835772276 2.34130764
-0.4731720686 -3.937889099 2.647948742
-0.4616931081 -3.851249218 2.386717796
-0.4113632739 -3.972100973 2.73583889
-0.3601610661 -3.915825129 2.572264671
-0.3633315265 -3.961268187 2.706053734
-0.351801157 -3.847773314 2.375
-0.3467823863 -3.871194124 2.442382336
-0.3486727774 -3.970456123 2.733397961
-0.3314777315 -3.827413082 2.314452648
-0.2785704732 -3.863358974 2.417967796
-0.2521954775 -3.958587885 2.696289063
-0.2445978969 -3.897103071 2.517577648
-0.2385094762 -3.844568014 2.36328125
-0.2377024442 -3.858235121 2.40771389
-0.2330979258 -3.966035128 2.724608898
-0.1984737217 -3.848446846 2.374511242
-0.12729159 -3.849570274 2.372558117
-0.1333210021 -3.936641932 2.641112804
-0.1264850199 -3.863237143 2.417479515
-0.1311650276 -3.91762805 2.574217319
-0.1098539755 -3.827934265 2.310058117
-0.09839577228 -3.866514206 2.446776867
-0.07183103263 -3.887938023 2.528176785
-0.07262880355 -3.909494162 2.660012722
-0.07067554444 -3.889423132 2.557472706
-0.0688771978 -3.874912024 2.555032253
-0.07459626347 -3.940401077 2.66686821
-0.07716111094 -3.983433008 2.866066456
-0.06776303798 -3.925235033 2.641945839
-0.06594567746 -3.92852211 2.612160683
-0.05958482251 -3.909145117 2.549173355
-0.06392703205 -3.975774288 2.729836941
-0.05561256409 -3.93876195 2.632181168
-0.04651180655 -3.948205948 2.661965847
-0.04775346816 -3.976013184 2.737160683
-0.03066953458 -3.880748034 2.46274662
-0.02824066766 -3.870476007 2.441751003
-0.01337095723 -3.849683285 2.369973183
-0.01213135198 -3.836177826 2.32993412
-0.01922215149 -3.915143967 2.563332558
-0.02117345855 -3.936964035 2.626321316
-0.0141111901 -3.866366863 2.41977787
-0.01678305119 -3.972196102 2.710793495
0.002667344874 -3.854795218 2.387551785
-0.002547290642 -3.928678036 2.592141151
-0.001879574498 -3.937101126 2.633156776
0.03357336298 -3.871901274 2.433449745
0.03772396594 -3.855487108 2.392433643
0.03508903459 -3.938645124 2.627297878
0.04762755334 -3.845810175 2.361673355
0.05763678253 -3.980898142 2.759134293
0.07597597688 -3.929336071 2.609230995
0.08911237866 -3.984446287 2.774270058
0.1039431393 -3.820636034 2.295266151
0.09370154887 -3.93667531 2.627297878
0.09968090802 -3.870525122 2.443216324
0.09652169794 -3.907598972 2.535012722
0.102569513 -3.853315115 2.383644581
0.1006450057 -3.885253191 2.48325491
0.09350198507 -3.973992825 2.735228062
0.1060730368 -3.904172182 2.533058643
0.1159864292 -3.861706018 2.410989285
0.1250329167 -3.836613894 2.331888199
0.139154017 -3.822388172 2.291359901
0.1422380656 -3.943321943 2.649270058
0.1556170285 -3.8700881 2.444680691
0.1745161116 -3.960536003 2.705422878
0.1828721911 -3.939575195 2.641945839
0.2164548784 -3.842483044 2.348977089
0.2097764015 -3.91694808 2.566751003
0.2131334096 -3.882682085 2.46665287
0.2038041949 -3.987282038 2.783547878
0.2084901482 -3.947191238 2.668313026
0.2172842771 -3.851965904 2.38706255
0.2154752016 -3.883216143 2.485208035
0.2169954777 -3.935658216 2.645363808
0.2253590375 -3.971902132 2.737648964
0.2348221838 -3.880916119 2.472513199
0.233690232 -3.969427347 2.716164589
0.2577638328 -3.842974901 2.36216116
0.2716067731 -3.904071093 2.536476612
0.3034153879 -3.844161034 2.356789589
0.315492034 -3.913836002 2.57847023
0.3259093761 -3.898967981 2.518410683
0.3271594942 -3.885463238 2.488137722
0.3184234798 -3.98243618 2.78159523
0.3221213818 -3.946105003 2.668313026
0.3333914876 -3.823870182 2.305032253
0.3324506879 -3.847862959 2.371438026
0.3375236988 -3.952910185 2.685890675
0.3387914002 -3.978125095 2.757668495
0.3397144973 -3.972618341 2.737160683
0.3490927219 -3.892438173 2.51352787
0.3854078054 -3.965435982 2.718117714
0.4075725973 -3.858368158 2.399759293
0.405564785 -3.944015026 2.65415287
0.4171999991 -3.881107092 2.474465847
0.4161366224 -3.957064152 2.70200491
0.4448703527 -3.851912975 2.385109901
0.4374807775 -3.934693098 2.628273964
0.4467553198 -3.832529783 2.32847023
0.4378254414 -3.932626963 2.618508816
0.4424617589 -3.89078927 2.499855995
0.4419843256 -3.949001074 2.68637991
0.4557897449 -3.985678911 2.777199745
0.4611999393 -3.933089018 2.624368191
0.4771568775 -3.944822073 2.661477089
0.4871349335 -3.899919987 2.531594753
0.4928023815 -3.898976326 2.521340847
0.49600178 -3.972132206 2.738626003
0.5012438297 -3.932784081 2.618020058
0.5106195807 -3.961085081 2.705422878
0.5199638605 -3.92206192 2.603859901
0.5322990417 -3.846654177 2.364114285
0.5353699327 -3.943169117 2.660989285
0.5532073975 -3.869940996 2.435890675
0.5517297983 -3.936098099 2.63852787
0.5585778952 -3.86269331 2.425148487
0.5484111309 -3.976296186 2.758645058
0.5525259376 -3.931278944 2.609719753
0.560208559 -3.848871231 2.378763199
0.5676178932 -3.964568138 2.715676785
0.5770325065 -3.918924093 2.585306168
0.5877920389 -3.859086275 2.403177261
0.5971252918 -3.820063114 2.291359901
0.5841439962 -3.972858906 2.73325491
0.6002700329 -3.90995717 2.561867714
0.6130983829 -3.827610016 2.316262722
0.6182594895 -3.827671051 2.315773487
0.6220693588 -3.856228113 2.398293972
0.6345894337 -3.894546032 2.518410683
0.6481444836 -3.926667213 2.612160683
0.6589210629 -3.975310087 2.758156776
0.6739436984 -3.851280928 2.390969753
0.6683874726 -3.912928104 2.570168972
0.6747601628 -3.842278004 2.354836941
0.6706895828 -3.889043093 2.503273964
0.6666039228 -3.935807943 2.63852787
0.6631034017 -3.979131222 2.76743412
0.6771180034 -3.848744154 2.372903347
0.6734715104 -3.948214054 2.667336941
0.6931564212 -3.900945187 2.528665066
0.6954126358 -3.940886974 2.661965847
0.702509582 -3.919129133 2.584329128
0.720017612 -3.974933147 2.756691933
0.7287133932 -3.919118166 2.580422878
0.7347614765 -3.969130993 2.716652393
0.7518680096 -3.836894035 2.335793972
0.7428717017 -3.972217083 2.734230995
0.7523831129 -3.948554039 2.672708035
0.7604776621 -3.918852091 2.575540066
0.760019362 -3.98718214 2.789894581
0.7757853866 -3.860769987 2.414406776
0.7814315557 -3.929586172 2.610207558
0.7799013853 -3.946904182 2.668313026
0.7905265093 -3.830548048 2.32212162
0.7867521644 -3.887802124 2.495461464
0.7907524109 -3.847658157 2.375833035
0.7794083357 -3.976514101 2.765480995
0.7842865586 -3.972019196 2.73618412
0.788618207 -3.952481031 2.685890675
0.8054217696 -3.824057102 2.310891151
0.8042669296 -3.892333031 2.511575222
0.8142266273 -3.898706198 2.52915287
0.8182728887 -3.907398939 2.547708035
0.838988483 -3.843817234 2.36899662
0.8414574862 -3.92947197 2.618997097
0.8456852436 -3.935041189 2.628763199
0.8534195423 -3.901471138 2.541359901
0.8644778728 -3.837820292 2.348488808
0.8629715443 -3.912345171 2.577004433
0.8745174408 -3.837570906 2.347023964
0.8799698353 -3.833819151 2.328958035
0.8726919889 -3.96718502 2.729836941
0.8841309547 -3.89309907 2.509134293
0.8892920613 -3.893160105 2.508644581
0.8941732049 -3.892850161 2.508157253
0.8926717043 -3.959007263 2.688821316
0.9018092155 -3.865900993 2.424660683
0.8947217464 -3.949052095 2.68637991
0.8976017237 -3.917540073 2.581888199
0.9068114758 -3.81781435 2.289894581
0.904132545 -3.852132082 2.388040066
0.9002069831 -3.936931133 2.647316933
0.8973271847 -3.974375248 2.736672878
0.9083771706 -3.90479207 2.551613808
0.9224455953 -3.856029987 2.403665066
0.9229207039 -3.957573175 2.692727089
0.9351617694 -3.929943085 2.614113808
0.941827476 -3.906753063 2.54722023
0.9509080052 -3.858989239 2.40903616
0.9593698978 -3.870126963 2.43540287
0.9730991125 -3.823430061 2.300148964
0.9665111899 -3.952665091 2.684915066
0.9769867659 -3.943730116 2.663430691
0.9807683229 -3.947866917 2.672708035
0.9929897785 -3.971512318 2.738626003
1.015165329 -3.831655979 2.32993412
1.017648697 -3.851735115 2.390969753
1.011379242 -3.921698093 2.59262991
1.00789094 -3.960837126 2.706887722
1.014271855 -3.890186071 2.499855995
1.00952065 -3.947015047 2.659523964
1.006860733 -3.981334209 2.774270058
1.014282942 -3.947392941 2.65903616
1.025865555 -3.868433952 2.434915066
1.022561073 -3.984325886 2.78159523
1.046292782 -3.851571083 2.387551785
1.055609941 -3.972303152 2.737648964
1.07354629 -3.906756163 2.546243191
1.099604845 -3.821624041 2.294290066
1.103267431 -3.830635071 2.327980995
1.115464926 -3.844161987 2.361673355
1.115705609 -3.889875174 2.503273964
1.113269329 -3.969907999 2.745949745
1.131634116 -3.815796137 2.289894581
1.132234931 -3.851075172 2.385597706
1.132998347 -3.844508171 2.368020058
1.121478677 -3.972304106 2.744972706
1.128685355 -3.892650127 2.510597706
1.124794841 -3.936291218 2.6487813
1.130799532 -3.871890068 2.447609901
1.123517632 -3.958165169 2.706398964
1.122802258 -3.966480017 2.725931168
1.132657528 -3.907964945 2.555520058
1.134490252 -3.933922291 2.629251003
1.134394765 -3.977516413 2.762063026
1.14853847 -3.832138062 2.339699745
1.14178431 -3.956129074 2.694191933
1.165275335 -3.937416077 2.634622097
1.184769511 -3.864668131 2.423195839
1.179391861 -3.974465132 2.754250526
1.196028471 -3.844981909 2.377297878
1.225218058 -3.849743128 2.383156776
1.227750182 -3.918660164 2.587747097
1.230498314 -3.934926987 2.607765675
1.235142827 -3.930061102 2.622903347
1.239678144 -3.927631855 2.604836464
1.246114254 -3.858729124 2.406594753
1.248596072 -3.83171916 2.328958035
1.241138458 -3.916935205 2.577004433
1.236814737 -3.969261169 2.735695839
1.239687443 -3.937749147 2.624368191
1.24893713 -3.84814024 2.380226612
1.245945573 -3.90894413 2.565773964
1.250462055 -3.910700083 2.557472706
1.25442636 -3.91171217 2.556984901
1.255315542 -3.951547384 2.684915066
1.274988294 -3.922763109 2.598976612
1.274238586 -3.976420164 2.766458035
1.290297747 -3.846194983 2.37534523
1.287096858 -3.928609133 2.60727787
1.291187763 -3.928935289 2.615091324
1.289304495 -3.981106281 2.774270058
1.305615902 -3.859621048 2.40805912
1.325404406 -3.830149889 2.320168972
1.336185336 -3.94018507 2.645363808
1.364311695 -3.818242073 2.290872097
1.361537576 -3.849065304 2.384133816
1.352086663 -3.954353094 2.697609901
1.349313974 -3.98517704 2.792336464
1.358692765 -3.882326126 2.479836941
1.356367946 -3.914580107 2.577980518
1.365356445 -3.844834328 2.374855995
1.371084929 -3.827152014 2.315285683
1.375922441 -3.820909262 2.289894581
1.378364682 -3.839241028 2.356301785
1.379365087 -3.874201059 2.451515675
1.382992983 -3.877279997 2.46762991
1.395174742 -3.833600044 2.337747097
1.431375265 -3.87868309 2.470558643
1.44054842 -3.820114136 2.299173355
1.436231852 -3.915345907 2.576515675
1.436404586 -3.973613024 2.733742714
1.448531032 -3.950855017 2.683449745
1.457567811 -3.8971591 2.520364285
1.467631221 -3.827149153 2.313332558
1.45601511 -3.98423934 2.785501003
1.469556451 -3.922179937 2.59018755
1.475534678 -3.856030941 2.405130386
1.478779435 -3.822453976 2.31137991
1.476406693 -3.848775864 2.379738808
1.4680053 -3.943683147 2.65415287
1.478895545 -3.8360672 2.345558643
1.48026669 -3.864779234 2.430031776
1.485357761 -3.85297513 2.395363331
1.49235189 -3.817603111 2.293802261
1.49573946 -3.869148254 2.445168972
1.513349533 -3.848571062 2.391457558
1.511696815 -3.98517704 2.768898964
1.525042892 -3.844618082 2.37387991
1.520830512 -3.9719491 2.738626003
1.52667129 -3.957762957 2.700051785
1.533964276 -3.918577194 2.589699745
1.541534901 -3.879763126 2.474465847
1.548771858 -3.885920286 2.491066933
1.558247805 -3.823537111 2.311867714
1.909940243 -3.981588125 2.818215847
1.913268447 -3.945574999 2.732278347
1.918066859 -3.902359962 2.543802261
1.917988658 -3.907232046 2.607765675
1.916407704 -3.926987886 2.685890675
1.923169971 -3.856020212 2.461770058
1.916816473 -3.936788082 2.704933643
1.917470098 -3.936842203 2.680519581
1.920423865 -3.907766342 2.711770058
1.919932127 -3.919948101 2.595558643
1.931755424 -3.809262037 2.344094753
1.936005473 -3.78029418 2.315773487
1.919366002 -3.966296196 2.729836941
1.932855844 -3.855400085 2.391945839
1.935271502 -3.839195013 2.373391151
1.922195673 -3.98431015 2.784523487
1.927168131 -3.930289984 2.637551785
1.929457307 -3.906404018 2.559426785
1.934303045 -3.857256174 2.430519581
1.926313639 -3.972080946 2.738626003
1.93866384 -3.849583149 2.37534523
1.942115903 -3.855786085 2.406594753
1.946743965 -3.922427893 2.593605995
1.951866388 -3.887954235 2.49790287
1.96512568 -3.815407038 2.290872097
1.959563375 -3.909842968 2.565285683
1.98034656 -3.901031017 2.529640675
1.994379878 -3.817733049 2.2894063
1.996433496 -3.879287004 2.476418972
1.992140889 -3.937546015 2.6487813
2.002515316 -3.841053009 2.35337162
2.009078264 -3.847155094 2.376320839
2.011113644 -3.865803957 2.433449745
2.01539278 -3.873121023 2.450051785
2.015201569 -3.91321826 2.576515675
2.026490211 -3.932253122 2.643898964
2.038444042 -3.838675022 2.357277393
2.034994364 -3.912350178 2.566751003
2.043910027 -3.849225044 2.389504433
2.046286106 -3.88010931 2.472513199
2.044156313 -3.905055046 2.548195839
2.041792631 -3.931377172 2.626321316
2.051525593 -3.830644131 2.339699745
2.039287806 -3.966756105 2.733742714
2.051339865 -3.848071098 2.380715847
2.054575682 -3.880070925 2.479348183
2.066864729 -3.854189157 2.403665066
2.08838129 -3.832877159 2.337747097
2.095386028 -3.826107979 2.320656776
2.092526197 -3.929129124 2.629251003
2.107738972 -3.830578089 2.335793972
2.118394613 -3.894210815 2.515969753
2.11901927 -3.958092928 2.706887722
2.132131338 -3.847515106 2.389992714
2.131574154 -3.889677048 2.506203651
2.127716303 -3.967854261 2.73325491
2.134024382 -3.932428122 2.626321316
2.149113178 -3.87153697 2.454445839
2.14183116 -3.986416101 2.78696537
2.155238867 -3.839236259 2.356301785
2.155171871 -3.874461174 2.462258816
2.154262304 -3.922873259 2.606301785
2.157574415 -3.915462971 2.580422878
2.153786421 -3.958415031 2.703958035
2.161104679 -3.878072262 2.46274662
2.160801888 -3.886070013 2.494972706
2.166992664 -3.822728872 2.315285683
2.154547691 -3.966150045 2.722512722
2.165540218 -3.847728014 2.387551785
2.161558151 -3.91229105 2.571633816
2.175061226 -3.834183216 2.34653616
2.172380209 -3.901291132 2.544290066
2.170366287 -3.986940145 2.792336464
2.177375793 -3.914595127 2.57847023
2.188092232 -3.900099039 2.535012722
2.182448864 -3.986851931 2.791359901
2.195645094 -3.851167202 2.393410683
2.192399025 -3.978923321 2.76352787
2.215843678 -3.835680246 2.351906776
2.219837904 -3.82832408 2.327980995
2.216972589 -3.964132071 2.732278347
2.222631931 -3.98167491 2.777688026
2.238083839 -3.834657192 2.349953651
2.229081631 -3.969979048 2.741066933
2.234970331 -3.943238974 2.668313026
2.244446993 -3.970852137 2.740090847
2.260037661 -3.833263159 2.341165066
2.256664991 -3.904500008 2.554055691
2.257455349 -3.965257168 2.721047878
2.279179096 -3.828156233 2.331399441
2.272166014 -3.914803028 2.578958035
2.266134739 -3.983388186 2.782570839
2.275530338 -3.880537033 2.485695839
2.281016111 -3.821324825 2.307961941
2.270855665 -3.934928417 2.647316933
2.27974081 -3.847385168 2.394387722
2.269673586 -3.964483023 2.73618412
2.276662588 -3.929111242 2.629738808
2.284541845 -3.849511147 2.387551785
2.286245823 -3.960220337 2.717141151
2.295628309 -3.890157223 2.509134293
2.299631119 -3.882801056 2.492043972
2.305812836 -3.848063231 2.378273964
2.311822653 -3.853423119 2.40903616
2.310820818 -3.894155264 2.524758816
2.32796073 -3.876332283 2.473001003
2.327692032 -3.947468042 2.670266151
2.335194111 -3.933762074 2.649759293
2.347163439 -3.835999966 2.350930691
2.34349823 -3.911051989 2.580422878
2.347030163 -3.902265072 2.539406776
2.346786737 -3.940614223 2.65903616
2.357230425 -3.860171318 2.422708035
2.361841679 -3.873790264 2.470558643
2.365636349 -3.93513608 2.640480995
2.379677534 -3.847652912 2.381204128
2.372355461 -3.960783243 2.719094753
2.383095264 -3.876527071 2.470070839
2.387812853 -3.903761148 2.54477787
2.39235568 -3.854243279 2.396828651
2.383613586 -3.951215029 2.683449745
2.394844532 -3.827232122 2.32456255
2.382876396 -3.967900038 2.73618412
2.39434433 -3.85265708 2.389015675
2.394458055 -3.856152058 2.411965847
2.400397062 -3.892553091 2.518410683
2.407748938 -3.912321806 2.569191456
2.416556835 -3.878489256 2.475931168
2.41843915 -3.891893387 2.516946316
2.426751614 -3.836394072 2.354347706
2.423187256 -3.910758018 2.567727089
2.422709942 -3.946300268 2.663430691
2.438659668 -3.839433193 2.36899662
2.434568405 -3.918986797 2.599954128
2.430153608 -3.977935076 2.76841116
2.432448149 -3.986837149 2.795265675
2.452314138 -3.856564999 2.40903616
2.459155798 -3.848737001 2.391945839
2.459253788 -3.880835295 2.474465847
2.463503122 -3.867918968 2.440773964
2.465034008 -3.948964119 2.684915066
2.482015848 -3.897292852 2.537454128
2.494882107 -3.820878983 2.31137991
2.491152525 -3.894183159 2.520852089
2.494613886 -3.957594156 2.709816933
2.500869751 -3.920419216 2.59653616
2.509020567 -3.831073046 2.334816933
2.499914169 -3.934295893 2.63950491
2.496063471 -3.979684114 2.772806168
2.507703781 -3.851200104 2.397806168
2.497533321 -3.964801073 2.727395058
2.508729219 -3.849188089 2.389504433
2.508621693 -3.939872026 2.648293495
2.516009092 -3.889881134 2.503762722
2.516885042 -3.944016933 2.657083035
2.527499676 -3.93020916 2.628763199
2.537536383 -3.882871151 2.485695839
2.55194664 -3.821926117 2.316262722
2.546489716 -3.915673256 2.577492714
2.555579185 -3.882212162 2.48472023
2.55805254 -3.920777082 2.601418495
2.560367584 -3.972584963 2.758645058
2.569144249 -3.895847082 2.52524662
2.576504707 -3.915616035 2.583352089
2.583293676 -3.8732512 2.458840847
2.587425232 -3.861022949 2.425637722
2.582041025 -3.952332973 2.687355518
2.590790272 -3.888149023 2.507180691
2.593328953 -3.891490221 2.515480995
2.598162413 -3.87094593 2.450051785
2.605074883 -3.827893019 2.32993412
2.60915494 -3.813916206 2.290872097
2.608015776 -3.892307997 2.514993191
2.612910748 -3.873512268 2.464699745
2.608718395 -3.949569225 2.684915066
2.618767262 -3.883745193 2.489601612
