# .PCD v0.7 - Point Cloud Data file format
VERSION 0.7
FIELDS x y z normal_x normal_y normal_z
SIZE 4 4 4 4 4 4
TYPE F F F F F F
COUNT 1 1 1 1 1 1
WIDTH 883
HEIGHT 1
VIEWPOINT 0 0 0 1 0 0 0
POINTS 883
DATA ascii
1.114930183e-05 5.304154001e-06 6.249563739e-06 0 0 0
1.114933184e-05 5.843469921e-07 1.841380936e-06 0 0 0
1.114943097e-05 -3.236727025e-06 3.728100182e-06 0 0 0
1.114945371e-05 7.578490226e-07 1.841868993e-06 0 0 0
1.114948554e-05 -3.496133104e-06 4.486889338e-06 0 0 0
1.114981933e-05 -2.931988092e-06 2.827709068e-06 0 0 0
1.114985753e-05 4.430999979e-06 3.601635171e-06 0 0 0
1.115003761e-05 4.314273156e-06 3.25886208e-06 0 0 0
1.115012674e-05 -1.014724944e-06 1.841380936e-06 0 0 0
1.115022314e-05 5.055761903e-06 5.504934961e-06 0 0 0
1.11503623e-05 -3.511441037e-06 4.529369107e-06 0 0 0
1.115072882e-05 4.772759894e-06 4.638744031e-06 0 0 0
1.115105806e-05 4.819498827e-06 4.768119197e-06 0 0 0
1.115153736e-05 4.984315183e-06 5.281302947e-06 0 0 0
1.115169289e-05 4.884906957e-06 4.982475275e-06 0 0 0
1.115191299e-05 5.086107194e-06 5.588432032e-06 0 0 0
1.11519721e-05 -3.041251148e-06 3.143627055e-06 0 0 0
1.115223677e-05 1.754370032e-06 1.841380936e-06 0 0 0
1.115248051e-05 4.2527804e-06 3.065502142e-06 0 0 0
1.115310624e-05 4.736900792e-06 4.532299045e-06 0 0 0
1.115310988e-05 1.443642986e-06 1.843333962e-06 0 0 0
1.115386476e-05 -3.017155905e-06 3.069897048e-06 0 0 0
1.115393297e-05 1.888219998e-07 1.841380936e-06 0 0 0
1.115393934e-05 1.595271101e-06 1.843821906e-06 0 0 0
1.115421765e-05 4.442432783e-06 3.652903843e-06 0 0 0
1.115461782e-05 -3.466059979e-06 4.402415925e-06 0 0 0
1.115484247e-05 1.597970027e-06 1.843333962e-06 0 0 0
1.115485065e-05 2.974969959e-07 1.842358074e-06 0 0 0
1.115566192e-05 1.612797973e-06 1.845775955e-06 0 0 0
1.115580835e-05 -3.190820053e-06 3.585522109e-06 0 0 0
1.115590476e-05 4.274329967e-06 3.137279009e-06 0 0 0
1.115652958e-05 2.179326884e-06 1.843821906e-06 0 0 0
1.115673876e-05 -5.293420031e-07 1.843333962e-06 0 0 0
1.11570007e-05 5.283116025e-06 6.185599887e-06 0 0 0
1.115732994e-05 4.499680017e-06 3.819896847e-06 0 0 0
1.115738269e-05 1.171783993e-06 1.842846018e-06 0 0 0
1.115793384e-05 -3.022669944e-06 3.094798785e-06 0 0 0
1.115850046e-05 -3.570079912e-07 1.840404025e-06 0 0 0
1.11590316e-05 8.180509781e-07 1.840892992e-06 0 0 0
1.115984924e-05 -3.474435971e-06 4.422924121e-06 0 0 0
1.116032854e-05 -5.365500328e-07 1.842846018e-06 0 0 0
1.116077237e-05 2.378826139e-06 1.842358074e-06 0 0 0
1.116122075e-05 4.58006798e-06 4.066966994e-06 0 0 0
1.116127987e-05 -3.745419974e-07 1.842358074e-06 0 0 0
1.116184558e-05 2.321944066e-06 1.844310987e-06 0 0 0
1.116219846e-05 -2.658670155e-07 1.840404025e-06 0 0 0
1.116274871e-05 8.56548013e-07 1.840892992e-06 0 0 0
1.116303156e-05 3.134780115e-07 1.844799044e-06 0 0 0
1.116337262e-05 4.241534043e-06 3.042065146e-06 0 0 0
1.116355907e-05 -2.951076112e-06 2.884350124e-06 0 0 0
1.116356907e-05 2.405619853e-06 1.846264013e-06 0 0 0
1.116403291e-05 4.408489929e-07 1.842846018e-06 0 0 0
1.116448311e-05 2.315849088e-06 1.841380936e-06 0 0 0
1.116498424e-05 2.766129796e-07 1.840404025e-06 0 0 0
1.116530893e-05 -3.307935003e-06 3.938549071e-06 0 0 0
1.116536714e-05 7.399750075e-07 1.836498086e-06 0 0 0
1.116582371e-05 4.57693568e-06 4.057201295e-06 0 0 0
1.116597832e-05 4.964570053e-07 1.843333962e-06 0 0 0
1.11663303e-05 2.246784106e-06 1.842358074e-06 0 0 0
1.116649582e-05 -3.588208074e-06 4.768139206e-06 0 0 0
1.116672502e-05 4.30500009e-08 1.843333962e-06 0 0 0
1.116719432e-05 9.528250189e-07 1.835033004e-06 0 0 0
1.1167308e-05 -1.717393957e-06 1.843821906e-06 0 0 0
1.116769636e-05 3.155359991e-07 1.842358074e-06 0 0 0
1.116796284e-05 1.099262022e-06 1.839428023e-06 0 0 0
1.116845124e-05 3.129068091e-06 1.843821906e-06 0 0 0
1.1169348e-05 -2.908238912e-06 2.765696991e-06 0 0 0
1.116945896e-05 1.616259908e-07 1.841380936e-06 0 0 0
1.11696354e-05 1.151427e-06 1.843821906e-06 0 0 0
1.116999647e-05 4.700595127e-06 4.4175531e-06 0 0 0
1.117019019e-05 -3.466244152e-06 4.400950729e-06 0 0 0
1.117021384e-05 3.138281045e-06 1.840892992e-06 0 0 0
1.11703639e-05 1.143057943e-06 1.839428023e-06 0 0 0
1.1170373e-05 4.97279234e-06 5.244682143e-06 0 0 0
1.117129614e-05 -5.336020195e-07 1.843333962e-06 0 0 0
1.117130159e-05 1.035968012e-06 1.839915967e-06 0 0 0
1.117131069e-05 -3.231520168e-06 3.700755997e-06 0 0 0
1.117186002e-05 4.217317837e-06 2.971264166e-06 0 0 0
1.117192733e-05 4.886780061e-06 4.985892247e-06 0 0 0
1.117199099e-05 1.199034955e-06 1.841868993e-06 0 0 0
1.117315969e-05 -3.07131404e-06 3.243236961e-06 0 0 0
1.117332431e-05 -2.300310058e-07 1.840404025e-06 0 0 0
1.117390639e-05 4.728341082e-06 4.499584065e-06 0 0 0
1.117399552e-05 1.683048026e-06 1.846751957e-06 0 0 0
1.117420379e-05 -2.100120042e-07 1.846751957e-06 0 0 0
1.117499687e-05 1.876567921e-06 1.843821906e-06 0 0 0
1.117518514e-05 -3.0323381e-06 3.127513992e-06 0 0 0
1.117539705e-05 -3.488125913e-06 4.472728961e-06 0 0 0
1.117580086e-05 5.774190299e-07 1.843821906e-06 0 0 0
1.117585998e-05 1.755284984e-06 1.842358074e-06 0 0 0
1.117723514e-05 -5.946769761e-07 1.843821906e-06 0 0 0
1.117739885e-05 6.815380402e-07 1.840892992e-06 0 0 0
1.117740521e-05 4.468663974e-06 3.713451179e-06 0 0 0
1.117819465e-05 1.432321028e-06 1.838939966e-06 0 0 0
1.117833745e-05 5.083000474e-07 1.841868993e-06 0 0 0
1.117846296e-05 4.565900326e-06 4.010326393e-06 0 0 0
1.117887678e-05 -3.236616067e-06 3.72712293e-06 0 0 0
1.117936608e-05 -1.04368894e-06 1.842846018e-06 0 0 0
1.118004002e-05 9.047149661e-07 1.837963055e-06 0 0 0
1.118066211e-05 -3.47399282e-06 4.420970981e-06 0 0 0
1.118077489e-05 2.532064855e-06 1.844310987e-06 0 0 0
1.11808813e-05 4.195483143e-06 2.885326012e-06 0 0 0
1.118098226e-05 -2.918849987e-06 2.789623068e-06 0 0 0
1.118173986e-05 2.31068384e-06 1.844310987e-06 0 0 0
1.118207183e-05 5.911250014e-07 1.842846018e-06 0 0 0
1.118260479e-05 3.071158062e-06 1.840404025e-06 0 0 0
1.118296404e-05 -2.937708132e-06 2.845287099e-06 0 0 0
1.118306864e-05 4.695065854e-06 4.39655696e-06 0 0 0
1.118396085e-05 -1.051323011e-06 1.841380936e-06 0 0 0
1.118432101e-05 1.682236984e-06 1.840892992e-06 0 0 0
1.118452019e-05 3.011784884e-06 1.841868993e-06 0 0 0
1.118496766e-05 -3.10618293e-06 3.344310926e-06 0 0 0
1.118555519e-05 -3.42935391e-06 4.287182037e-06 0 0 0
1.118561067e-05 6.303899625e-08 1.843821906e-06 0 0 0
1.118611272e-05 8.938480391e-07 1.837963055e-06 0 0 0
1.118634918e-05 -1.113503004e-06 1.845286988e-06 0 0 0
1.118648652e-05 2.917774964e-06 1.849682008e-06 0 0 0
1.118746786e-05 -2.616179984e-07 1.845775955e-06 0 0 0
1.118763612e-05 4.572452781e-06 4.037181952e-06 0 0 0
1.118787259e-05 2.238858087e-06 1.842358074e-06 0 0 0
1.118826003e-05 -1.274351916e-06 1.843821906e-06 0 0 0
1.118838281e-05 2.977194981e-06 1.841380936e-06 0 0 0
1.118872297e-05 7.727729781e-07 1.842358074e-06 0 0 0
1.118887576e-05 5.115758086e-06 5.679740298e-06 0 0 0
1.118895489e-05 -2.901120979e-06 2.743237019e-06 0 0 0
1.118926684e-05 -3.589305152e-06 4.745189926e-06 0 0 0
1.118930959e-05 -1.01849605e-06 1.843333962e-06 0 0 0
1.118957334e-05 1.524243999e-06 1.844799044e-06 0 0 0
1.119084209e-05 -3.304743814e-06 3.927807029e-06 0 0 0
1.119087119e-05 -2.960494839e-06 2.909740033e-06 0 0 0
1.11910349e-05 4.391200292e-08 1.842846018e-06 0 0 0
1.119124772e-05 2.458166136e-06 1.843821906e-06 0 0 0
1.119185981e-05 4.864580205e-07 1.844799044e-06 0 0 0
1.11919162e-05 -1.664260935e-06 1.849682008e-06 0 0 0
1.119214539e-05 1.217538966e-06 1.840892992e-06 0 0 0
1.119240824e-05 4.672858722e-06 4.335032827e-06 0 0 0
1.119283206e-05 2.695780097e-07 1.842358074e-06 0 0 0
1.119307581e-05 2.344772838e-06 1.842846018e-06 0 0 0
1.11937261e-05 -1.169495931e-06 1.846264013e-06 0 0 0
1.119453464e-05 -5.728319934e-07 1.841868993e-06 0 0 0
1.119481294e-05 -3.011713943e-06 3.054759873e-06 0 0 0
1.11955087e-05 -3.973190132e-07 1.842358074e-06 0 0 0
1.119565331e-05 1.028514021e-06 1.835033004e-06 0 0 0
1.11959489e-05 -3.323501005e-06 3.974682386e-06 0 0 0
1.119642911e-05 1.082479912e-06 1.839428023e-06 0 0 0
1.119665649e-05 4.484468263e-06 3.77399806e-06 0 0 0
1.119692115e-05 -1.679892989e-06 1.844799044e-06 0 0 0
1.119723584e-05 -1.06310199e-06 1.842846018e-06 0 0 0
1.119735953e-05 4.167175121e-06 2.800853963e-06 0 0 0
1.119803073e-05 6.664109833e-07 1.845775955e-06 0 0 0
1.119804256e-05 2.830219898e-07 1.842358074e-06 0 0 0
1.119876379e-05 9.226379802e-07 1.838939966e-06 0 0 0
1.119884018e-05 -5.312639928e-07 1.840404025e-06 0 0 0
1.119891203e-05 4.341256954e-06 3.348704922e-06 0 0 0
1.119950866e-05 1.641907943e-06 1.844799044e-06 0 0 0
1.119975241e-05 1.284240057e-07 1.844310987e-06 0 0 0
1.120025627e-05 2.559625955e-06 1.868725008e-06 0 0 0
1.120050001e-05 3.275050062e-07 1.838939966e-06 0 0 0
1.120081106e-05 -1.828773975e-06 1.840892992e-06 0 0 0
1.1200892e-05 4.516345143e-06 3.862865015e-06 0 0 0
1.120107754e-05 -3.328752882e-06 3.993236987e-06 0 0 0
1.120113393e-05 1.468616006e-06 1.844310987e-06 0 0 0
1.120141224e-05 8.463000079e-09 1.85358806e-06 0 0 0
1.120204797e-05 4.877833362e-06 4.951225037e-06 0 0 0
1.120207708e-05 2.538703029e-06 1.843333962e-06 0 0 0
1.120289107e-05 -1.819933004e-06 1.844799044e-06 0 0 0
1.120327033e-05 -5.101389888e-07 1.844799044e-06 0 0 0
1.120373963e-05 1.638459025e-06 1.842846018e-06 0 0 0
1.120401976e-05 1.474840019e-07 1.839428023e-06 0 0 0
1.120452907e-05 9.827930398e-07 1.842846018e-06 0 0 0
1.120462093e-05 4.334573987e-06 3.324290901e-06 0 0 0
1.120552497e-05 -3.329447964e-06 3.993236987e-06 0 0 0
1.120564775e-05 -3.828779995e-07 1.840892992e-06 0 0 0
1.120564957e-05 4.740046734e-06 4.517651178e-06 0 0 0
1.1206007e-05 1.795168941e-06 1.846264013e-06 0 0 0
1.120634261e-05 4.449075277e-06 3.66022914e-06 0 0 0
1.120642901e-05 -2.935839802e-07 1.840404025e-06 0 0 0
1.120669913e-05 1.830440056e-06 1.839915967e-06 0 0 0
1.120678007e-05 -1.708718969e-06 1.843821906e-06 0 0 0
1.120761499e-05 9.912089354e-07 1.837963055e-06 0 0 0
1.120817979e-05 3.198329978e-06 1.851635034e-06 0 0 0
1.120825709e-05 2.455089998e-07 1.843821906e-06 0 0 0
1.120839806e-05 2.354651997e-06 1.845775955e-06 0 0 0
1.120896104e-05 -2.941828825e-06 2.854564855e-06 0 0 0
1.120931847e-05 2.529475978e-06 1.843333962e-06 0 0 0
1.120985053e-05 -4.043339743e-07 1.842358074e-06 0 0 0
1.121025707e-05 1.020439981e-06 1.841868993e-06 0 0 0
1.12107391e-05 -3.086734068e-06 3.285229013e-06 0 0 0
1.121086825e-05 4.602153695e-06 4.109427664e-06 0 0 0
1.121101923e-05 1.717888949e-06 1.845286988e-06 0 0 0
1.121125206e-05 -3.357951982e-06 4.078685834e-06 0 0 0
1.121160858e-05 4.300085038e-06 3.21882203e-06 0 0 0
1.121172045e-05 2.313176992e-06 1.843821906e-06 0 0 0
1.121250625e-05 7.096040235e-07 1.844799044e-06 0 0 0
1.121255173e-05 1.502770033e-07 1.840404025e-06 0 0 0
1.121271089e-05 -1.774296038e-06 1.842846018e-06 0 0 0
1.121332116e-05 4.440907105e-06 3.633861979e-06 0 0 0
1.121407968e-05 1.254259018e-06 1.848704983e-06 0 0 0
1.121419609e-05 4.425600309e-06 3.60798299e-06 0 0 0
1.121423247e-05 -4.455440035e-07 1.842846018e-06 0 0 0
1.121481273e-05 4.706771961e-06 4.423900918e-06 0 0 0
1.121520745e-05 -2.038819957e-07 1.844799044e-06 0 0 0
1.121586865e-05 2.454153901e-06 1.842358074e-06 0 0 0
1.121598507e-05 -4.100099886e-07 1.843821906e-06 0 0 0
1.121617606e-05 -3.489250958e-06 4.468821771e-06 0 0 0
1.12166681e-05 1.609044944e-06 1.841868993e-06 0 0 0
1.121686e-05 -2.621960107e-07 1.845286988e-06 0 0 0
1.121706191e-05 4.232814263e-06 3.012278967e-06 0 0 0
1.121753303e-05 9.675719639e-07 1.836498086e-06 0 0 0
1.121771948e-05 -1.005141939e-06 1.840892992e-06 0 0 0
1.121851074e-05 5.259240083e-07 1.838939966e-06 0 0 0
1.12187563e-05 -1.73702108e-06 1.843821906e-06 0 0 0
1.121982496e-05 4.532520052e-06 3.915599791e-06 0 0 0
1.121996775e-05 1.064699973e-06 1.842358074e-06 0 0 0
1.122035974e-05 5.000728379e-06 5.335014066e-06 0 0 0
1.122058256e-05 4.289347089e-06 3.178763791e-06 0 0 0
1.122061076e-05 -2.943435902e-06 2.863353984e-06 0 0 0
1.122102731e-05 5.094480002e-07 1.845286988e-06 0 0 0
1.122148387e-05 -3.351134865e-06 4.058666036e-06 0 0 0
1.1221563e-05 1.133493924e-06 1.843333962e-06 0 0 0
1.122246067e-05 -3.206446991e-06 3.636302836e-06 0 0 0
1.122247522e-05 2.445670134e-06 1.841380936e-06 0 0 0
1.122248614e-05 -3.550007932e-06 4.660229024e-06 0 0 0
1.122332469e-05 1.795193953e-06 1.837474997e-06 0 0 0
1.122419144e-05 1.709235903e-06 1.843821906e-06 0 0 0
1.122421691e-05 4.301864919e-06 3.21882203e-06 0 0 0
1.122427057e-05 6.138799336e-08 1.840404025e-06 0 0 0
1.122472986e-05 4.683135103e-06 4.361888841e-06 0 0 0
1.122484537e-05 1.100334998e-06 1.839915967e-06 0 0 0
1.122509821e-05 -1.79377011e-07 1.840404025e-06 0 0 0
1.122590766e-05 9.104300602e-08 1.842846018e-06 0 0 0
1.122617505e-05 -3.300247045e-06 3.907787232e-06 0 0 0
1.122687718e-05 -1.919840003e-07 1.843821906e-06 0 0 0
1.122753201e-05 2.950914904e-06 1.842358074e-06 0 0 0
1.122764661e-05 5.099680038e-07 1.838939966e-06 0 0 0
1.122792401e-05 7.780050169e-07 1.843333962e-06 0 0 0
1.122937192e-05 4.182322755e-06 2.864818953e-06 0 0 0
1.122939375e-05 4.685192835e-06 4.371166142e-06 0 0 0
1.122948379e-05 -2.514120183e-07 1.844799044e-06 0 0 0
1.122960384e-05 2.562861027e-06 1.85847091e-06 0 0 0
1.123052425e-05 2.217497922e-06 1.844799044e-06 0 0 0
1.123052698e-05 2.120525096e-06 1.844310987e-06 0 0 0
1.123059519e-05 -1.784704978e-06 1.843821906e-06 0 0 0
1.123095262e-05 4.242112936e-06 3.052319016e-06 0 0 0
1.123115999e-05 1.623210011e-07 1.844799044e-06 0 0 0
1.123127186e-05 -3.292682095e-06 3.888743777e-06 0 0 0
1.123192123e-05 2.072849981e-07 1.842358074e-06 0 0 0
1.123218954e-05 1.220280978e-06 1.833569058e-06 0 0 0
1.123288894e-05 4.293217899e-06 3.194896863e-06 0 0 0
1.123289621e-05 2.340259016e-06 1.841868993e-06 0 0 0
1.123303446e-05 -9.33616036e-07 1.843333962e-06 0 0 0
1.123358652e-05 8.412859529e-07 1.837963055e-06 0 0 0
1.123366837e-05 -1.097481004e-06 1.843821906e-06 0 0 0
1.123414495e-05 5.074798082e-06 5.564017101e-06 0 0 0
1.12344369e-05 4.692069979e-06 4.390697086e-06 0 0 0
1.123449238e-05 -8.842059742e-07 1.844310987e-06 0 0 0
1.123472066e-05 4.31212311e-06 3.243236961e-06 0 0 0
1.123502352e-05 1.59582703e-06 1.839428023e-06 0 0 0
1.123524453e-05 3.950810026e-07 1.845286988e-06 0 0 0
1.123595121e-05 7.964230235e-07 1.842846018e-06 0 0 0
1.123611673e-05 -8.63552998e-07 1.847240014e-06 0 0 0
1.123611855e-05 8.435399934e-08 1.842358074e-06 0 0 0
1.123635502e-05 4.282913324e-06 3.160696906e-06 0 0 0
1.123635593e-05 -1.693726972e-06 1.843821906e-06 0 0 0
1.123651964e-05 -3.419851055e-06 4.253001862e-06 0 0 0
1.123693255e-05 -5.886299732e-07 1.840404025e-06 0 0 0
1.123700986e-05 2.198632956e-06 1.842358074e-06 0 0 0
1.123769471e-05 -1.293126957e-06 1.855053029e-06 0 0 0
1.123780294e-05 9.258050113e-07 1.839915967e-06 0 0 0
1.123800484e-05 -2.929216862e-06 2.833080089e-06 0 0 0
1.123847051e-05 -9.129170166e-07 1.841380936e-06 0 0 0
1.123850961e-05 9.700800092e-07 1.840892992e-06 0 0 0
1.12391499e-05 1.886421046e-06 1.844310987e-06 0 0 0
1.123927086e-05 1.994350072e-07 1.840404025e-06 0 0 0
1.123940365e-05 4.758184787e-06 4.585990155e-06 0 0 0
1.123974107e-05 4.142371836e-06 2.726634875e-06 0 0 0
1.124019764e-05 5.251699875e-08 1.843821906e-06 0 0 0
1.124099072e-05 -1.057188001e-06 1.843333962e-06 0 0 0
1.124140999e-05 -3.441361059e-06 4.332104254e-06 0 0 0
1.124188566e-05 1.136859993e-07 1.847728981e-06 0 0 0
1.12419666e-05 -3.196202897e-06 3.609447049e-06 0 0 0
1.124242226e-05 1.716461952e-06 1.839915967e-06 0 0 0
1.1243068e-05 4.462467132e-06 3.701733021e-06 0 0 0
1.124329356e-05 2.318315865e-06 1.842358074e-06 0 0 0
1.124357732e-05 -5.084569921e-07 1.842846018e-06 0 0 0
1.124374739e-05 -3.208810995e-06 3.644604021e-06 0 0 0
1.124400842e-05 2.203971007e-06 1.843333962e-06 0 0 0
1.124452956e-05 4.287108823e-06 3.179271971e-06 0 0 0
1.124462506e-05 4.605724826e-06 4.127025932e-06 0 0 0
1.124582377e-05 -3.235295026e-06 3.732983032e-06 0 0 0
1.124638584e-05 2.49435584e-06 1.845286988e-06 0 0 0
1.124650225e-05 4.457695013e-06 3.692944119e-06 0 0 0
1.124658411e-05 -3.353453849e-06 4.06647905e-06 0 0 0
1.124682512e-05 -5.949490287e-07 1.843333962e-06 0 0 0
1.124711707e-05 6.608240142e-07 1.855540972e-06 0 0 0
1.124759638e-05 -3.089282927e-06 3.294018143e-06 0 0 0
1.124774008e-05 -1.953549997e-07 1.844310987e-06 0 0 0
1.1247781e-05 1.819940053e-06 1.842846018e-06 0 0 0
1.124843129e-05 4.341175554e-06 3.340403964e-06 0 0 0
1.124850496e-05 7.005419889e-07 1.837963055e-06 0 0 0
1.124951996e-05 -2.914883908e-06 2.777904001e-06 0 0 0
1.124997834e-05 4.673878266e-06 4.338940016e-06 0 0 0
1.125000654e-05 2.897545983e-06 1.841868993e-06 0 0 0
1.125005929e-05 1.037746983e-06 1.840404025e-06 0 0 0
1.125010476e-05 4.784189969e-07 1.842358074e-06 0 0 0
1.125080507e-05 -3.167459909e-06 3.530834192e-06 0 0 0
1.125089875e-05 -8.913809779e-07 1.842846018e-06 0 0 0
1.125092967e-05 6.608700005e-07 1.846264013e-06 0 0 0
1.125139261e-05 -3.001267032e-06 3.032298991e-06 0 0 0
1.125152539e-05 -3.246479082e-06 3.751049007e-06 0 0 0
1.125171366e-05 2.187433893e-06 1.840892992e-06 0 0 0
1.125311155e-05 -5.722390028e-07 1.842846018e-06 0 0 0
1.125320159e-05 4.212312888e-06 2.935131079e-06 0 0 0
1.125327617e-05 8.009499766e-07 1.838939966e-06 0 0 0
1.125331983e-05 -3.183935178e-06 3.574290986e-06 0 0 0
1.125397193e-05 8.053979741e-07 1.838939966e-06 0 0 0
1.125405925e-05 -1.193130004e-07 1.847728981e-06 0 0 0
1.125467497e-05 2.934929853e-06 1.842846018e-06 0 0 0
1.12548305e-05 2.116884161e-06 1.845286988e-06 0 0 0
1.125511062e-05 4.540831014e-06 3.940502211e-06 0 0 0
1.125524523e-05 -3.009536158e-06 3.056713012e-06 0 0 0
1.125564086e-05 6.627999927e-09 1.855053029e-06 0 0 0
1.125565268e-05 1.025186066e-06 1.840404025e-06 0 0 0
1.125627477e-05 8.214939839e-07 1.839915967e-06 0 0 0
1.125673771e-05 -3.330007985e-06 3.999095952e-06 0 0 0
1.125702875e-05 -1.747991973e-06 1.843333962e-06 0 0 0
1.125707331e-05 7.258440178e-07 1.844799044e-06 0 0 0
1.125724248e-05 2.430450081e-07 1.838939966e-06 0 0 0
1.125884046e-05 -3.078391046e-06 3.252514034e-06 0 0 0
1.125909785e-05 -6.371259929e-07 1.839428023e-06 0 0 0
1.125935069e-05 8.562320204e-07 1.839915967e-06 0 0 0
1.125972085e-05 4.215957233e-06 2.959056928e-06 0 0 0
1.125997096e-05 -6.216099564e-07 1.839915967e-06 0 0 0
1.126034931e-05 2.156279152e-06 1.844799044e-06 0 0 0
1.126050302e-05 4.534518666e-06 3.921947155e-06 0 0 0
1.126144616e-05 4.299633019e-06 3.219310884e-06 0 0 0
1.126157986e-05 -1.293272021e-06 1.849682008e-06 0 0 0
1.126162351e-05 -3.289871984e-06 3.87800219e-06 0 0 0
1.126238294e-05 1.679567958e-06 1.840892992e-06 0 0 0
1.126238749e-05 -1.764189932e-07 1.841868993e-06 0 0 0
1.126239022e-05 2.825921001e-06 1.85358806e-06 0 0 0
1.126239204e-05 -3.240406159e-06 3.732983032e-06 0 0 0
1.126239295e-05 3.482720103e-07 1.842358074e-06 0 0 0
1.126239658e-05 -1.900107009e-06 1.845775955e-06 0 0 0
1.126239931e-05 -1.930930011e-06 1.841380936e-06 0 0 0
1.126240386e-05 1.529952101e-06 1.842358074e-06 0 0 0
1.126240477e-05 7.804919733e-07 1.835521971e-06 0 0 0
1.126240841e-05 4.99811722e-06 5.322806828e-06 0 0 0
1.126240932e-05 4.664590051e-06 4.308178177e-06 0 0 0
1.126241204e-05 4.587500086e-07 1.844799044e-06 0 0 0
1.126241659e-05 2.94090205e-06 1.842846018e-06 0 0 0
1.12624175e-05 -5.816280009e-07 1.844310987e-06 0 0 0
1.126242296e-05 -2.92697996e-06 2.810131036e-06 0 0 0
1.126242751e-05 -3.284046898e-06 3.868236945e-06 0 0 0
1.126242933e-05 2.491364057e-06 1.846264013e-06 0 0 0
1.126243023e-05 -3.477992095e-06 4.433177764e-06 0 0 0
1.126243296e-05 -3.019451015e-06 3.089427992e-06 0 0 0
1.126244206e-05 1.781731044e-06 1.846751957e-06 0 0 0
1.126244297e-05 7.060280041e-07 1.837474997e-06 0 0 0
1.126244479e-05 -2.9134751e-06 2.77057984e-06 0 0 0
1.126244661e-05 1.001447004e-06 1.837474997e-06 0 0 0
1.126245297e-05 -9.515119928e-07 1.842846018e-06 0 0 0
1.126246389e-05 -4.223199994e-07 1.842358074e-06 0 0 0
1.126246661e-05 4.634453944e-06 4.220286883e-06 0 0 0
1.126247116e-05 4.50665766e-06 3.841380931e-06 0 0 0
1.126247844e-05 1.151753054e-06 1.841380936e-06 0 0 0
1.126248026e-05 4.32449815e-06 3.286184892e-06 0 0 0
1.126248844e-05 -3.049585985e-06 3.170483069e-06 0 0 0
1.126249572e-05 2.434906946e-06 1.842846018e-06 0 0 0
1.126249572e-05 4.229246315e-06 3.006420002e-06 0 0 0
1.126250481e-05 4.559990884e-06 4.003489721e-06 0 0 0
1.126251755e-05 4.176601578e-06 2.851634918e-06 0 0 0
1.126252118e-05 -2.89333002e-07 1.846751957e-06 0 0 0
1.126252482e-05 6.585739811e-07 1.85602903e-06 0 0 0
1.126252755e-05 9.539940038e-07 1.844310987e-06 0 0 0
1.126253028e-05 2.161995099e-06 1.843333962e-06 0 0 0
1.126253665e-05 -1.192910986e-06 1.843333962e-06 0 0 0
1.126254938e-05 2.488630173e-07 1.844310987e-06 0 0 0
1.126255029e-05 2.272473012e-06 1.843333962e-06 0 0 0
1.126255847e-05 -3.203015922e-06 3.626537136e-06 0 0 0
1.126256211e-05 3.12790894e-06 1.841380936e-06 0 0 0
1.126256484e-05 -1.241053042e-06 1.844310987e-06 0 0 0
1.126256484e-05 4.23893789e-06 3.037670012e-06 0 0 0
1.126256757e-05 -3.066215868e-06 3.219310884e-06 0 0 0
1.126260395e-05 -3.367860018e-07 1.842358074e-06 0 0 0
1.126262941e-05 4.310275926e-06 3.243725132e-06 0 0 0
1.126263214e-05 4.442574209e-06 3.64118614e-06 0 0 0
1.126263578e-05 -1.002090016e-06 1.841868993e-06 0 0 0
1.126266125e-05 -2.976869837e-06 2.960521897e-06 0 0 0
1.126270126e-05 1.908467084e-06 1.849194064e-06 0 0 0
1.126270399e-05 1.551400942e-06 1.841380936e-06 0 0 0
1.126272309e-05 -3.394895884e-06 4.190989785e-06 0 0 0
1.126273037e-05 -3.390393886e-06 4.171458841e-06 0 0 0
1.126275311e-05 5.380330208e-07 1.839915967e-06 0 0 0
1.126275583e-05 -3.341564025e-06 4.0362047e-06 0 0 0
1.126276402e-05 2.234500052e-08 1.846264013e-06 0 0 0
1.126280222e-05 -3.411525995e-06 4.240307135e-06 0 0 0
1.126280495e-05 -3.116105972e-06 3.369213118e-06 0 0 0
1.126283678e-05 -3.292043857e-06 3.895579994e-06 0 0 0
1.126283769e-05 -3.455166961e-06 4.361400897e-06 0 0 0
1.126284405e-05 -3.516813877e-06 4.567943961e-06 0 0 0
1.126285861e-05 8.086799852e-08 1.843333962e-06 0 0 0
1.126286315e-05 4.357359103e-06 3.389721087e-06 0 0 0
1.126287316e-05 -2.943292884e-06 2.857493882e-06 0 0 0
1.126288316e-05 1.205401986e-06 1.841868993e-06 0 0 0
1.126290499e-05 4.814868589e-06 4.763725428e-06 0 0 0
1.126292045e-05 -1.642133043e-06 1.842846018e-06 0 0 0
1.126301231e-05 -3.184004072e-06 3.574290986e-06 0 0 0
1.12630205e-05 4.584194357e-06 4.086498393e-06 0 0 0
1.126307325e-05 -2.918719019e-06 2.794505917e-06 0 0 0
1.126307416e-05 4.421759968e-06 3.581126975e-06 0 0 0
1.126310417e-05 1.406603019e-06 1.844310987e-06 0 0 0
1.126310508e-05 4.90559205e-06 5.040580163e-06 0 0 0
1.126314237e-05 -1.767174012e-06 1.845286988e-06 0 0 0
1.126319785e-05 -9.817019873e-07 1.843821906e-06 0 0 0
1.126324787e-05 4.137407814e-06 2.721264082e-06 0 0 0
1.12633079e-05 2.11898805e-06 1.841868993e-06 0 0 0
1.126337793e-05 4.315413207e-06 3.259838195e-06 0 0 0
1.126344887e-05 -8.594670362e-07 1.841868993e-06 0 0 0
1.126350799e-05 4.65653784e-06 4.288157925e-06 0 0 0
1.126355528e-05 7.378019973e-07 1.844310987e-06 0 0 0
1.126358802e-05 2.911718184e-06 1.840404025e-06 0 0 0
1.126362622e-05 4.705024821e-06 4.416557204e-06 0 0 0
1.126368807e-05 5.036458788e-06 5.445852821e-06 0 0 0
1.126374809e-05 -3.514114042e-06 4.52839322e-06 0 0 0
1.126379721e-05 -3.125535159e-06 3.402903985e-06 0 0 0
1.126484494e-05 4.235790243e-07 1.842846018e-06 0 0 0
1.126492589e-05 5.113940006e-06 5.675346074e-06 0 0 0
1.126509324e-05 1.881611979e-06 1.848217039e-06 0 0 0
1.126521602e-05 -3.164781901e-06 3.522045063e-06 0 0 0
1.126529423e-05 4.322188943e-06 3.283764045e-06 0 0 0
1.126535881e-05 5.119446996e-06 5.696341759e-06 0 0 0
1.126546977e-05 4.200959211e-06 2.913157914e-06 0 0 0
1.126566076e-05 2.091359903e-07 1.844799044e-06 0 0 0
1.126578354e-05 4.957331839e-06 5.201225122e-06 0 0 0
1.126600546e-05 7.469610068e-07 1.845775955e-06 0 0 0
1.126609368e-05 4.552782229e-06 3.976147127e-06 0 0 0
1.126621737e-05 4.865866231e-06 4.921439086e-06 0 0 0
1.126628558e-05 4.809407983e-06 4.744681974e-06 0 0 0
1.126640473e-05 5.176856121e-06 5.866751962e-06 0 0 0
1.126664665e-05 4.339398856e-06 3.332592087e-06 0 0 0
1.126676125e-05 6.904500083e-07 1.835521971e-06 0 0 0
1.126688039e-05 5.306345884e-06 6.259329894e-06 0 0 0
1.126695224e-05 -3.36752305e-06 4.112376701e-06 0 0 0
1.126711049e-05 4.429061846e-06 3.598216836e-06 0 0 0
1.126725329e-05 1.456330097e-07 1.844310987e-06 0 0 0
1.126748612e-05 4.464704944e-06 3.726634986e-06 0 0 0
1.126749794e-05 1.731461907e-06 1.843821906e-06 0 0 0
1.126768893e-05 5.347495971e-06 6.351127013e-06 0 0 0
1.126822281e-05 1.10143003e-06 1.843821906e-06 0 0 0
1.126848474e-05 5.282669918e-06 6.192924047e-06 0 0 0
1.126857569e-05 -3.051449994e-06 3.17878289e-06 0 0 0
1.126871939e-05 4.288170032e-07 1.840404025e-06 0 0 0
1.12690368e-05 1.244053919e-06 1.843821906e-06 0 0 0
1.126934785e-05 5.064413926e-06 5.52983829e-06 0 0 0
1.126970437e-05 -9.870609574e-07 1.844799044e-06 0 0 0
1.126970437e-05 4.89260583e-06 5.001516911e-06 0 0 0
1.126975894e-05 8.079669556e-07 1.839915967e-06 0 0 0
1.12701855e-05 4.300678029e-06 3.219798828e-06 0 0 0
1.127031737e-05 4.544830972e-06 3.948803169e-06 0 0 0
1.12704447e-05 -1.705062004e-06 1.842358074e-06 0 0 0
1.127047381e-05 4.335269921e-07 1.842358074e-06 0 0 0
1.127047562e-05 4.74812532e-06 4.551322036e-06 0 0 0
1.127051019e-05 8.792519566e-07 1.841380936e-06 0 0 0
1.127112318e-05 -2.106989996e-07 1.842358074e-06 0 0 0
1.127125688e-05 1.404577006e-06 1.844310987e-06 0 0 0
1.127176893e-05 4.492768312e-06 3.796458941e-06 0 0 0
1.127180713e-05 4.418304343e-06 3.572338073e-06 0 0 0
1.127193082e-05 4.829379918e-07 1.842846018e-06 0 0 0
1.127221913e-05 -3.450362101e-06 4.350170002e-06 0 0 0
1.127223004e-05 -2.987318794e-06 2.992748023e-06 0 0 0
1.127266296e-05 6.068670473e-07 1.839428023e-06 0 0 0
1.127274936e-05 9.209819609e-07 1.838450999e-06 0 0 0
1.127349515e-05 -1.849110021e-07 1.846264013e-06 0 0 0
1.12740081e-05 -2.902953838e-06 2.748607812e-06 0 0 0
1.127420819e-05 2.504637905e-06 1.845286988e-06 0 0 0
1.127488849e-05 1.781446031e-06 1.841868993e-06 0 0 0
1.127501582e-05 3.198275181e-06 1.847240014e-06 0 0 0
1.127507494e-05 -2.882420063e-07 1.842846018e-06 0 0 0
1.127562427e-05 7.018750239e-07 1.842846018e-06 0 0 0
1.127567339e-05 -1.616466989e-06 1.842846018e-06 0 0 0
1.127582709e-05 -3.800780064e-07 1.841380936e-06 0 0 0
1.127640371e-05 7.250179692e-07 1.830639007e-06 0 0 0
1.127654468e-05 4.205284313e-06 2.913157914e-06 0 0 0
1.127673022e-05 -4.43527e-07 1.842846018e-06 0 0 0
1.127696032e-05 4.655826615e-06 4.277903827e-06 0 0 0
1.12771877e-05 1.175878992e-06 1.841380936e-06 0 0 0
1.127719588e-05 2.811598961e-06 1.843333962e-06 0 0 0
1.127728319e-05 -3.266857902e-06 3.821849987e-06 0 0 0
1.127737596e-05 4.111659848e-07 1.839428023e-06 0 0 0
1.127809992e-05 5.305940363e-07 1.839915967e-06 0 0 0
1.127877113e-05 1.041725e-06 1.838450999e-06 0 0 0
1.127894757e-05 -1.860320111e-07 1.843821906e-06 0 0 0
1.128016902e-05 1.804581075e-06 1.842846018e-06 0 0 0
1.128044914e-05 2.166329978e-07 1.845775955e-06 0 0 0
1.128097665e-05 7.038789818e-07 1.847240014e-06 0 0 0
1.128122949e-05 -3.119631856e-06 3.385815035e-06 0 0 0
1.128132317e-05 2.982970102e-07 1.837963055e-06 0 0 0
1.128150234e-05 5.113330189e-06 5.678763955e-06 0 0 0
1.128214626e-05 -5.333059789e-07 1.842358074e-06 0 0 0
1.128247823e-05 -3.394716032e-06 4.189526408e-06 0 0 0
1.128255462e-05 2.328739129e-06 1.842358074e-06 0 0 0
1.12827729e-05 4.518223705e-06 3.867260148e-06 0 0 0
1.128284021e-05 3.837230054e-07 1.840404025e-06 0 0 0
1.128305757e-05 4.367548172e-06 3.430247943e-06 0 0 0
1.128317763e-05 2.451291039e-06 1.844310987e-06 0 0 0
1.128355507e-05 4.98647978e-07 1.841380936e-06 0 0 0
1.128385884e-05 1.141761004e-06 1.841868993e-06 0 0 0
1.128451095e-05 2.42417309e-06 1.842846018e-06 0 0 0
1.128468557e-05 4.326553153e-06 3.292065003e-06 0 0 0
1.12848893e-05 -3.050999112e-06 3.170483069e-06 0 0 0
1.128512758e-05 -4.909409768e-07 1.841868993e-06 0 0 0
1.128587155e-05 -4.241580029e-07 1.842846018e-06 0 0 0
1.128612621e-05 1.624713946e-06 1.844310987e-06 0 0 0
1.128624626e-05 4.275865649e-06 3.140208946e-06 0 0 0
1.128649819e-05 -3.039350077e-06 3.146556992e-06 0 0 0
1.128663644e-05 1.454949938e-07 1.840892992e-06 0 0 0
1.128743224e-05 -1.550548973e-06 1.844310987e-06 0 0 0
1.12874468e-05 -3.996929934e-07 1.840892992e-06 0 0 0
1.128755139e-05 2.176306907e-06 1.843333962e-06 0 0 0
1.128795066e-05 -3.448481948e-06 4.348216862e-06 0 0 0
1.128801341e-05 2.852308171e-06 1.844310987e-06 0 0 0
1.128828535e-05 5.412219934e-07 1.842846018e-06 0 0 0
1.128832992e-05 1.383840981e-06 1.838450999e-06 0 0 0
1.128837084e-05 -1.591488967e-06 1.842358074e-06 0 0 0
1.128868462e-05 4.571440968e-06 4.029857791e-06 0 0 0
1.128906024e-05 7.891339919e-07 1.838939966e-06 0 0 0
1.128942313e-05 4.210507086e-06 2.937083991e-06 0 0 0
1.128942404e-05 4.773303772e-06 4.631400316e-06 0 0 0
1.128970052e-05 -1.858369956e-07 1.844799044e-06 0 0 0
1.128975146e-05 1.410743039e-06 1.843821906e-06 0 0 0
1.129044358e-05 4.672839964e-07 1.838450999e-06 0 0 0
1.12904936e-05 1.900742973e-06 1.848704983e-06 0 0 0
1.129118482e-05 1.217377985e-06 1.836498086e-06 0 0 0
1.1291193e-05 -9.956750091e-07 1.843821906e-06 0 0 0
1.129122938e-05 2.875606015e-06 1.842846018e-06 0 0 0
1.129182328e-05 1.251960953e-06 1.840892992e-06 0 0 0
1.12919779e-05 1.076729959e-07 1.836010028e-06 0 0 0
1.12924572e-05 3.208680027e-06 1.855540972e-06 0 0 0
1.129258453e-05 9.706810715e-07 1.842358074e-06 0 0 0
1.129278098e-05 1.13497002e-07 1.843821906e-06 0 0 0
1.129338216e-05 -3.366133797e-06 4.101147169e-06 0 0 0
1.129369048e-05 -1.739789923e-06 1.842358074e-06 0 0 0
1.129407883e-05 4.305035873e-06 3.227612069e-06 0 0 0
1.129415887e-05 1.907726983e-06 1.848217039e-06 0 0 0
1.129441353e-05 4.542937859e-06 3.947337973e-06 0 0 0
1.129486918e-05 7.793270242e-07 1.838450999e-06 0 0 0
1.129507928e-05 -9.506110246e-07 1.844799044e-06 0 0 0
1.129560133e-05 4.231839739e-06 2.999095841e-06 0 0 0
1.129564862e-05 2.433687996e-06 1.843821906e-06 0 0 0
1.129638258e-05 1.711183018e-06 1.844310987e-06 0 0 0
1.129708653e-05 -2.94424899e-06 2.867260037e-06 0 0 0
1.129711382e-05 1.248775106e-06 1.851635034e-06 0 0 0
1.129788961e-05 8.133760048e-07 1.839428023e-06 0 0 0
1.129851262e-05 -2.912845048e-06 2.773022061e-06 0 0 0
1.129870543e-05 2.327122957e-06 1.843821906e-06 0 0 0
1.129893826e-05 -3.401203912e-06 4.207592156e-06 0 0 0
1.129901102e-05 -6.49265985e-07 1.843333962e-06 0 0 0
1.130039345e-05 4.605847153e-06 4.140697001e-06 0 0 0
1.13008482e-05 1.851788966e-06 1.842846018e-06 0 0 0
1.13011547e-05 -1.766940017e-07 1.843333962e-06 0 0 0
1.130140117e-05 -2.929002903e-06 2.820384907e-06 0 0 0
1.130154305e-05 4.139942121e-06 2.723216994e-06 0 0 0
1.130174132e-05 4.824285952e-06 4.789114882e-06 0 0 0
1.130218425e-05 1.044388e-06 1.838939966e-06 0 0 0
1.130338751e-05 5.791710009e-07 1.839915967e-06 0 0 0
1.130362671e-05 3.042255912e-06 1.843821906e-06 0 0 0
1.130370219e-05 1.685325969e-06 1.839915967e-06 0 0 0
1.130440705e-05 1.826574021e-06 1.842358074e-06 0 0 0
1.130463988e-05 -3.249267138e-06 3.757884997e-06 0 0 0
1.130490273e-05 4.353250063e-07 1.841380936e-06 0 0 0
1.130565579e-05 -1.05845902e-06 1.843821906e-06 0 0 0
1.130590408e-05 8.889400078e-07 1.839428023e-06 0 0 0
1.130634973e-05 -2.384020092e-07 1.843821906e-06 0 0 0
1.130650253e-05 4.61748823e-06 4.159740001e-06 0 0 0
1.130727105e-05 4.340709893e-06 3.340403964e-06 0 0 0
1.130743203e-05 2.319165105e-06 1.844310987e-06 0 0 0
1.130782493e-05 -1.18954199e-06 1.842358074e-06 0 0 0
1.130824967e-05 7.027750257e-07 1.840404025e-06 0 0 0
1.130846704e-05 4.367639576e-06 3.413626928e-06 0 0 0
1.130855617e-05 5.656040116e-07 1.843821906e-06 0 0 0
1.130939108e-05 -9.756320196e-07 1.840892992e-06 0 0 0
1.130939199e-05 -2.866944897e-06 2.658275889e-06 0 0 0
1.130949022e-05 -3.002367976e-06 3.034251904e-06 0 0 0
1.130956571e-05 2.491815849e-06 1.844799044e-06 0 0 0
1.131005592e-05 -3.339044952e-06 4.015209015e-06 0 0 0
1.131015324e-05 1.142100032e-07 1.839428023e-06 0 0 0
1.131020781e-05 1.093629066e-06 1.842846018e-06 0 0 0
1.131066711e-05 -1.788223926e-06 1.842846018e-06 0 0 0
1.131085264e-05 1.066565005e-06 1.842358074e-06 0 0 0
1.131109002e-05 4.115987849e-06 2.656322067e-06 0 0 0
1.131166482e-05 1.643080054e-07 1.840892992e-06 0 0 0
1.131183035e-05 4.310567874e-06 3.243725132e-06 0 0 0
1.131196041e-05 -3.178151928e-06 3.555737067e-06 0 0 0
1.131249519e-05 4.557102784e-06 3.982494036e-06 0 0 0
1.131313547e-05 8.090619872e-07 1.83454506e-06 0 0 0
1.131316003e-05 -3.123179113e-06 3.394115083e-06 0 0 0
1.131397676e-05 1.489882038e-06 1.841868993e-06 0 0 0
1.131447971e-05 -3.093152145e-06 3.294018143e-06 0 0 0
1.131451154e-05 -5.621690207e-07 1.843333962e-06 0 0 0
1.131469708e-05 2.129497943e-06 1.844310987e-06 0 0 0
1.131539739e-05 1.353662014e-06 1.842846018e-06 0 0 0
1.131543195e-05 1.681699899e-07 1.844799044e-06 0 0 0
1.13156002e-05 -2.990725989e-06 2.994212991e-06 0 0 0
1.131613499e-05 6.664840271e-07 1.847240014e-06 0 0 0
1.131619956e-05 -3.437193982e-06 4.315501883e-06 0 0 0
1.131670797e-05 -3.025100114e-06 3.098705065e-06 0 0 0
1.131687532e-05 -1.259518967e-06 1.843333962e-06 0 0 0
1.131737918e-05 4.27099576e-06 3.132885013e-06 0 0 0
1.131751378e-05 -1.800570004e-07 1.841380936e-06 0 0 0
1.131760564e-05 9.849929938e-07 1.843333962e-06 0 0 0
1.131776571e-05 -2.99401313e-06 3.010326054e-06 0 0 0
1.131819408e-05 4.250498023e-06 3.078196869e-06 0 0 0
1.131833869e-05 1.893707008e-06 1.842358074e-06 0 0 0
1.13185215e-05 -2.821254157e-06 2.55329519e-06 0 0 0
1.131871068e-05 3.035876944e-06 1.843333962e-06 0 0 0
1.131900262e-05 4.520919902e-06 3.87409591e-06 0 0 0
1.131902354e-05 7.164750286e-07 1.849194064e-06 0 0 0
1.131967474e-05 -2.828617198e-06 2.551829994e-06 0 0 0
1.131972203e-05 -2.886310142e-07 1.840892992e-06 0 0 0
1.131972294e-05 7.562480278e-07 1.842846018e-06 0 0 0
1.131986301e-05 -1.702017926e-06 1.843333962e-06 0 0 0
1.132026318e-05 4.285661817e-06 3.172435981e-06 0 0 0
1.132036232e-05 1.443317956e-06 1.843333962e-06 0 0 0
1.132056605e-05 -1.10673102e-06 1.842358074e-06 0 0 0
1.132060879e-05 -3.200304036e-06 3.616283038e-06 0 0 0
1.132115813e-05 -3.122767794e-06 3.385815035e-06 0 0 0
1.132139369e-05 -1.118223963e-06 1.844799044e-06 0 0 0
1.132176203e-05 1.522863954e-06 1.842846018e-06 0 0 0
1.132199577e-05 -3.292883093e-06 3.883862064e-06 0 0 0
1.132259604e-05 1.05733011e-06 1.841380936e-06 0 0 0
1.132267334e-05 -2.711100024e-06 2.218333975e-06 0 0 0
1.132295893e-05 -2.518279985e-07 1.844310987e-06 0 0 0
1.132312809e-05 3.929755167e-06 2.122631031e-06 0 0 0
1.132328725e-05 8.633310244e-07 1.838939966e-06 0 0 0
1.132337547e-05 -2.70215105e-06 2.187571909e-06 0 0 0
1.132417674e-05 -2.828624929e-06 2.552319074e-06 0 0 0
1.132423768e-05 -1.165130001e-07 1.842846018e-06 0 0 0
1.132426405e-05 -3.166995839e-06 3.521068948e-06 0 0 0
1.13246042e-05 1.250425044e-06 1.842358074e-06 0 0 0
1.132533816e-05 1.832896032e-06 1.845775955e-06 0 0 0
1.132533907e-05 -2.928459025e-06 2.82966198e-06 0 0 0
1.132544185e-05 4.082651685e-06 2.560130952e-06 0 0 0
1.132548823e-05 4.568203622e-06 4.018138952e-06 0 0 0
1.13256765e-05 3.966611985e-06 2.21003279e-06 0 0 0
1.13256765e-05 4.29285592e-06 3.188549044e-06 0 0 0
1.132619946e-05 2.435160127e-07 1.839915967e-06 0 0 0
1.132621492e-05 4.00432009e-06 2.345776011e-06 0 0 0
1.132665602e-05 1.796773972e-06 1.842358074e-06 0 0 0
1.132731359e-05 -1.549871058e-06 1.843333962e-06 0 0 0
1.132738998e-05 7.480269915e-07 1.843821906e-06 0 0 0
1.132755642e-05 -3.564349811e-07 1.845286988e-06 0 0 0
1.132793659e-05 6.932639849e-07 1.845775955e-06 0 0 0
1.132819853e-05 -3.385840955e-06 4.166088274e-06 0 0 0
1.132824218e-05 3.099891956e-06 1.841868993e-06 0 0 0
1.132909347e-05 -3.030575044e-06 3.114819037e-06 0 0 0
1.132913621e-05 -6.228870006e-07 1.838939966e-06 0 0 0
1.132946818e-05 2.15881505e-06 1.845286988e-06 0 0 0
1.132966281e-05 3.942403055e-06 2.120190175e-06 0 0 0
1.133028218e-05 6.702219935e-07 1.841380936e-06 0 0 0
1.133059322e-05 -2.472330038e-07 1.838939966e-06 0 0 0
1.133069782e-05 -1.520005981e-06 1.842358074e-06 0 0 0
1.133100068e-05 6.881739978e-07 1.842358074e-06 0 0 0
1.133133173e-05 -1.097533072e-06 1.844310987e-06 0 0 0
1.133162186e-05 1.463214062e-06 1.838939966e-06 0 0 0
1.133164824e-05 -3.218486881e-06 3.668528961e-06 0 0 0
1.133197566e-05 4.029150205e-06 2.380443902e-06 0 0 0
1.133205205e-05 1.945710011e-07 1.839915967e-06 0 0 0
1.13321712e-05 4.573912975e-06 4.0362047e-06 0 0 0
1.133240767e-05 -3.076550911e-06 3.253001978e-06 0 0 0
1.133268506e-05 2.908009833e-07 1.842358074e-06 0 0 0
1.133281148e-05 4.414549949e-06 3.570873105e-06 0 0 0
1.133302158e-05 2.292219051e-06 1.847728981e-06 0 0 0
1.133326259e-05 -2.712971082e-06 2.194408125e-06 0 0 0
1.133339356e-05 -2.512620085e-07 1.838939966e-06 0 0 0
1.133377918e-05 2.791221959e-06 1.842846018e-06 0 0 0
1.133397745e-05 -3.316680932e-06 3.957104127e-06 0 0 0
1.133412025e-05 -3.257810022e-07 1.842358074e-06 0 0 0
1.133478418e-05 -3.085160074e-07 1.843333962e-06 0 0 0
1.133527621e-05 4.863210961e-06 4.91216224e-06 0 0 0
1.133546448e-05 3.209456963e-06 1.844310987e-06 0 0 0
1.133553087e-05 -2.064080036e-07 1.844799044e-06 0 0 0
1.133581736e-05 1.111011898e-06 1.841868993e-06 0 0 0
1.133616843e-05 -3.0110441e-06 3.058665925e-06 0 0 0
1.133621117e-05 5.384960104e-07 1.841868993e-06 0 0 0
1.133643946e-05 1.167413984e-06 1.841868993e-06 0 0 0
1.133700425e-05 -1.060575983e-06 1.842846018e-06 0 0 0
1.133709702e-05 1.149354034e-06 1.840404025e-06 0 0 0
1.133718979e-05 -2.839344006e-06 2.559643008e-06 0 0 0
1.13373535e-05 4.406226708e-06 3.537669954e-06 0 0 0
1.133777914e-05 2.322159958e-07 1.840892992e-06 0 0 0
1.133819114e-05 -3.201337904e-06 3.624096053e-06 0 0 0
1.133829574e-05 3.942071089e-06 2.113353958e-06 0 0 0
1.133844944e-05 -1.28026204e-06 1.842358074e-06 0 0 0
1.133919613e-05 4.398810233e-06 3.520580094e-06 0 0 0
1.133923797e-05 -3.047109942e-07 1.841380936e-06 0 0 0
1.133956448e-05 4.496099791e-06 3.802319043e-06 0 0 0
1.133996011e-05 -8.831099763e-08 1.839428023e-06 0 0 0
1.134003105e-05 4.065574103e-06 2.493236934e-06 0 0 0
1.134016202e-05 -2.704508006e-06 2.164623083e-06 0 0 0
1.134040122e-05 -3.437709893e-06 4.313549198e-06 0 0 0
1.134109698e-05 2.862338079e-06 1.843333962e-06 0 0 0
1.134109971e-05 1.689660962e-06 1.843821906e-06 0 0 0
1.134146987e-05 5.481260246e-07 1.841380936e-06 0 0 0
1.134178547e-05 2.209797003e-06 1.842358074e-06 0 0 0
1.134212562e-05 3.430932111e-06 1.842358074e-06 0 0 0
1.134244485e-05 1.376126988e-06 1.838450999e-06 0 0 0
1.134305967e-05 4.104125765e-06 2.6133539e-06 0 0 0
1.1343187e-05 2.192369948e-06 1.843821906e-06 0 0 0
1.134365539e-05 4.260460003e-07 1.842846018e-06 0 0 0
1.134389277e-05 1.518008958e-06 1.841380936e-06 0 0 0
1.134423201e-05 -1.828264999e-06 1.843333962e-06 0 0 0
1.134454396e-05 1.495445986e-06 1.843333962e-06 0 0 0
1.134468584e-05 3.181372904e-06 1.843333962e-06 0 0 0
1.134495506e-05 -4.700130205e-07 1.841868993e-06 0 0 0
1.134523973e-05 1.596867037e-06 1.844310987e-06 0 0 0
1.134526519e-05 -2.855563025e-06 2.606028829e-06 0 0 0
1.13455153e-05 4.311731118e-06 3.252025863e-06 0 0 0
1.134559625e-05 -1.400110108e-07 1.844310987e-06 0 0 0
1.134582635e-05 7.843290177e-07 1.840404025e-06 0 0 0
1.134649392e-05 4.262474704e-06 3.094311069e-06 0 0 0
1.134658578e-05 9.262650451e-07 1.839915967e-06 0 0 0
1.134684499e-05 4.648963113e-06 4.252981853e-06 0 0 0
1.134698141e-05 -3.331902008e-06 4.011791134e-06 0 0 0
1.134714694e-05 1.466842036e-06 1.842846018e-06 0 0 0
1.134714785e-05 -3.131390031e-06 3.419017958e-06 0 0 0
1.134731156e-05 4.048032224e-06 2.434154112e-06 0 0 0
1.134786271e-05 1.798210008e-07 1.843333962e-06 0 0 0
1.134808917e-05 4.005025858e-06 2.308177955e-06 0 0 0
1.134856211e-05 1.534459955e-07 1.843333962e-06 0 0 0
1.134859394e-05 1.119359013e-06 1.838450999e-06 0 0 0
1.134923423e-05 -8.035199812e-07 1.842358074e-06 0 0 0
1.134932245e-05 -2.803933057e-06 2.453685966e-06 0 0 0
1.134993363e-05 -6.006239914e-07 1.840892992e-06 0 0 0
1.135002185e-05 9.876411013e-07 1.840404025e-06 0 0 0
1.135029834e-05 -2.822363967e-06 2.506908004e-06 0 0 0
1.135042476e-05 4.171427918e-06 2.825267984e-06 0 0 0
1.135064394e-05 2.945839981e-07 1.840404025e-06 0 0 0
1.1351377e-05 -1.678239983e-07 1.844799044e-06 0 0 0
1.135145612e-05 1.446763008e-06 1.840404025e-06 0 0 0
1.135196635e-05 2.276390063e-07 1.839428023e-06 0 0 0
1.135212278e-05 2.411934929e-06 1.843821906e-06 0 0 0
1.135223101e-05 -2.90355797e-06 2.745189931e-06 0 0 0
1.135277307e-05 1.833857937e-06 1.843333962e-06 0 0 0
1.135306047e-05 -2.751929969e-06 2.310619038e-06 0 0 0
1.135306775e-05 -3.399915158e-06 4.203197022e-06 0 0 0
1.135349157e-05 2.504297072e-06 1.843821906e-06 0 0 0
1.135410366e-05 4.322300029e-08 1.841868993e-06 0 0 0
1.135413731e-05 4.500843261e-06 3.81892005e-06 0 0 0
1.135414459e-05 7.535439863e-07 1.842846018e-06 0 0 0
1.1354663e-05 4.43257386e-06 3.612376986e-06 0 0 0
1.135476668e-05 1.266360101e-07 1.841380936e-06 0 0 0
1.135538605e-05 -1.091110107e-06 1.843821906e-06 0 0 0
1.135558614e-05 3.174629001e-06 1.841380936e-06 0 0 0
1.135630464e-05 2.116878932e-06 1.844799044e-06 0 0 0
1.135642833e-05 4.410962902e-06 3.553783017e-06 0 0 0
1.135685852e-05 1.753050043e-07 1.843333962e-06 0 0 0
1.135686398e-05 -1.746832027e-06 1.843333962e-06 0 0 0
1.135698949e-05 2.147648047e-06 1.844799044e-06 0 0 0
1.135715866e-05 4.371770956e-06 3.42976e-06 0 0 0
1.135767161e-05 5.780240144e-07 1.844799044e-06 0 0 0
1.135792809e-05 4.0949908e-06 2.584544973e-06 0 0 0
1.135841649e-05 -4.308959944e-07 1.841380936e-06 0 0 0
1.135861567e-05 -1.711296932e-06 1.843333962e-06 0 0 0
1.135893126e-05 9.952530036e-07 1.840404025e-06 0 0 0
1.135904586e-05 2.824949945e-07 1.838939966e-06 0 0 0
1.135945695e-05 -2.824815965e-06 2.515696906e-06 0 0 0
1.135959064e-05 8.140709724e-07 1.844310987e-06 0 0 0
1.136020728e-05 -3.242894991e-06 3.737864972e-06 0 0 0
1.136029823e-05 2.097170182e-06 1.842358074e-06 0 0 0
1.136043193e-05 -1.930666031e-06 1.844310987e-06 0 0 0
1.13605256e-05 5.085340149e-07 1.842358074e-06 0 0 0
1.136083301e-05 3.960040885e-06 2.168528908e-06 0 0 0
1.136093306e-05 1.510089987e-06 1.843821906e-06 0 0 0
1.136153878e-05 -3.239189937e-06 3.729075843e-06 0 0 0
1.136166611e-05 1.700168013e-06 1.840404025e-06 0 0 0
1.136173069e-05 2.816386996e-06 1.841380936e-06 0 0 0
1.136200444e-05 4.58334398e-06 4.062083917e-06 0 0 0
1.136230276e-05 2.321088914e-06 1.841868993e-06 0 0 0
1.136258561e-05 -3.425629984e-07 1.842358074e-06 0 0 0
1.136264382e-05 -3.079619091e-06 3.261303164e-06 0 0 0
1.136270839e-05 4.332199296e-06 3.316479024e-06 0 0 0
1.13636861e-05 4.05367291e-06 2.458568815e-06 0 0 0
1.136396986e-05 1.51196005e-07 1.842846018e-06 0 0 0
1.136439914e-05 1.589473982e-06 1.841868993e-06 0 0 0
1.136463106e-05 -1.528906978e-06 1.842846018e-06 0 0 0
1.136473202e-05 3.59280989e-07 1.839428023e-06 0 0 0
1.136477567e-05 4.138092208e-06 2.712474952e-06 0 0 0
1.136517221e-05 1.021777052e-06 1.841380936e-06 0 0 0
1.136540868e-05 1.562779914e-07 1.845286988e-06 0 0 0
1.136567789e-05 -3.168865078e-06 3.528880825e-06 0 0 0
1.136582341e-05 1.585552013e-06 1.844310987e-06 0 0 0
1.136584524e-05 4.372127023e-06 3.42976e-06 0 0 0
1.136595347e-05 -9.433649666e-07 1.840892992e-06 0 0 0
1.136665105e-05 1.059630037e-07 1.845775955e-06 0 0 0
1.136668743e-05 -3.230936954e-06 3.711010095e-06 0 0 0
1.136678293e-05 4.26503675e-06 3.110423904e-06 0 0 0
1.136687388e-05 4.851031917e-06 4.877494121e-06 0 0 0
1.13671822e-05 -3.38336099e-06 4.153393093e-06 0 0 0
1.136735864e-05 -3.39127979e-07 1.840404025e-06 0 0 0
1.13676997e-05 3.00258921e-06 1.842846018e-06 0 0 0
1.136776427e-05 8.563729921e-07 1.841868993e-06 0 0 0
1.136785158e-05 -1.653090038e-07 1.844799044e-06 0 0 0
1.136839455e-05 2.517672101e-06 1.843821906e-06 0 0 0
1.136854371e-05 -2.931600136e-07 1.840892992e-06 0 0 0
1.136879655e-05 -3.107116072e-06 3.343822073e-06 0 0 0
1.136907395e-05 1.794480909e-06 1.844310987e-06 0 0 0
1.136917399e-05 1.601380006e-07 1.843821906e-06 0 0 0
1.136958599e-05 -2.131564088e-06 1.852122978e-06 0 0 0
1.136974424e-05 1.586975941e-06 1.840404025e-06 0 0 0
1.136976152e-05 4.233029927e-07 1.841380936e-06 0 0 0
1.136977426e-05 4.541173894e-06 3.942455351e-06 0 0 0
1.136986157e-05 -2.842256208e-06 2.569897106e-06 0 0 0
1.137032814e-05 8.052620046e-07 1.842846018e-06 0 0 0
1.137050276e-05 -2.946979976e-07 1.841380936e-06 0 0 0
1.13706401e-05 3.965850738e-06 2.184154027e-06 0 0 0
1.137100844e-05 -3.180366093e-06 3.554760042e-06 0 0 0
1.137114486e-05 2.64574993e-07 1.838939966e-06 0 0 0
1.13717806e-05 1.24256303e-06 1.845775955e-06 0 0 0
1.137183608e-05 -4.849389938e-07 1.839915967e-06 0 0 0
1.137198433e-05 -2.872553978e-06 2.653880983e-06 0 0 0
1.137245545e-05 -3.315630011e-07 1.840892992e-06 0 0 0
1.137245727e-05 1.855168989e-06 1.839915967e-06 0 0 0
1.137256913e-05 2.870601975e-06 1.842846018e-06 0 0 0
1.137288382e-05 -1.437084961e-06 1.842358074e-06 0 0 0
1.137312665e-05 7.35083006e-07 1.842358074e-06 0 0 0
1.137316485e-05 -4.812329735e-07 1.841868993e-06 0 0 0
1.137349682e-05 3.213049013e-06 1.853100002e-06 0 0 0
1.137377149e-05 2.10996518e-06 1.843821906e-06 0 0 0
1.137429535e-05 -3.275172048e-06 3.844310868e-06 0 0 0
1.137435993e-05 1.200455017e-06 1.840404025e-06 0 0 0
1.137435993e-05 3.973524144e-06 2.214916094e-06 0 0 0
1.137478466e-05 2.227299944e-07 1.838939966e-06 0 0 0
1.137502295e-05 2.359570999e-06 1.843821906e-06 0 0 0
1.13753631e-05 4.167044153e-06 2.803782991e-06 0 0 0
1.13755932e-05 1.405732064e-06 1.841868993e-06 0 0 0
1.137606341e-05 -3.230635002e-06 3.710522151e-06 0 0 0
1.137606887e-05 -5.192119943e-07 1.839915967e-06 0 0 0
1.137620438e-05 2.304065902e-06 1.842846018e-06 0 0 0
1.13763399e-05 4.311732937e-06 3.252514034e-06 0 0 0
1.137669733e-05 -1.437036985e-06 1.843821906e-06 0 0 0
1.137720847e-05 -2.91625588e-06 2.777416057e-06 0 0 0
1.137738673e-05 2.151587069e-06 1.846751957e-06 0 0 0
1.13774604e-05 2.196603873e-06 1.845775955e-06 0 0 0
1.137746585e-05 -3.018789812e-06 3.084056971e-06 0 0 0
1.137746858e-05 3.082863941e-06 1.840892992e-06 0 0 0
1.137746949e-05 3.75941994e-07 1.835033004e-06 0 0 0
1.13774704e-05 -2.82034307e-06 2.502026064e-06 0 0 0
1.13774704e-05 7.683360082e-07 1.844799044e-06 0 0 0
1.137747313e-05 -3.07367003e-07 1.840892992e-06 0 0 0
1.137747313e-05 1.813215022e-06 1.841868993e-06 0 0 0
1.137747404e-05 7.37512039e-07 1.840404025e-06 0 0 0
1.137747586e-05 -3.371356115e-06 4.123608051e-06 0 0 0
1.137748313e-05 -1.705680006e-07 1.843821906e-06 0 0 0
1.137748313e-05 2.765624004e-06 1.840892992e-06 0 0 0
1.137749132e-05 -1.568012976e-06 1.844310987e-06 0 0 0
1.137749678e-05 -2.771511845e-06 2.365794899e-06 0 0 0
1.137750132e-05 1.338550106e-07 1.843821906e-06 0 0 0
1.137750223e-05 -2.736187071e-06 2.259837856e-06 0 0 0
1.137750223e-05 2.000039956e-07 1.842358074e-06 0 0 0
1.137750496e-05 1.63727691e-06 1.844799044e-06 0 0 0
1.137750587e-05 1.377182002e-06 1.840404025e-06 0 0 0
1.137750678e-05 4.150251698e-06 2.751048896e-06 0 0 0
1.137751315e-05 4.325158898e-06 3.286184892e-06 0 0 0
1.137751406e-05 -5.096279665e-07 1.838939966e-06 0 0 0
1.137751406e-05 3.991631729e-06 2.267162017e-06 0 0 0
1.137751678e-05 -2.824157036e-06 2.517161874e-06 0 0 0
1.137753407e-05 1.002797035e-06 1.837474997e-06 0 0 0
1.137753407e-05 4.428354259e-06 3.603588084e-06 0 0 0
1.137753497e-05 -5.622730441e-07 1.841380936e-06 0 0 0
1.137754771e-05 -9.45660986e-07 1.838939966e-06 0 0 0
1.137754771e-05 4.534329037e-06 3.923900749e-06 0 0 0
1.137754862e-05 4.274234925e-06 3.133862037e-06 0 0 0
1.137756499e-05 2.391926955e-06 1.843333962e-06 0 0 0
1.137756954e-05 -3.282010084e-06 3.853587714e-06 0 0 0
1.137757226e-05 2.559550012e-06 1.869701009e-06 0 0 0
1.137757226e-05 4.287740012e-06 3.181224884e-06 0 0 0
1.137757317e-05 4.353888926e-06 3.380931958e-06 0 0 0
1.137757772e-05 5.404410217e-07 1.842358074e-06 0 0 0
1.137758409e-05 4.393716608e-06 3.511303021e-06 0 0 0
1.137758954e-05 4.171459977e-07 1.841380936e-06 0 0 0
1.137759409e-05 -1.015622956e-06 1.840404025e-06 0 0 0
1.137759409e-05 1.104960006e-06 1.841868993e-06 0 0 0
