VERSION .7
FIELDS x y z
SIZE 4 4 4
TYPE F F F
COUNT 1 1 1
WIDTH 1055
HEIGHT 1
VIEWPOINT 0 0 0 1 0 0 0
POINTS 1055
DATA ascii
13.23393147 -3.81221714 2.3114000300000006
13.23393693 -3.873864055 2.494992904
13.23478548 -3.841029022 2.4017324080000018
13.23496102 -3.82995888 2.365599093
13.23533027 -3.961940886 2.74841087
13.24302642 -3.886006946 2.524290002
13.246885400000002 -3.9559229869999992 2.7288803800000005
13.25085989 -3.953809094 2.7196026250000003
13.27026033 -3.878796017 2.5057349460000014
13.27805742 -3.872135105 2.4866928550000007
13.28228839 -3.972556053 2.7987036530000005
13.28988904 -3.924321002 2.640501142
13.29388991 -3.807228789 2.303099071
13.29795535 -3.914219017 2.611204044
13.30189164 -3.903790978 2.5823962540000003
13.31764682 -3.822257052 2.348508778
13.32517562 -3.849862035 2.422728093
13.32889636 -3.9391600899999992 2.6903064360000006
13.332902679999998 -3.852892926 2.4403063520000003
13.3408353 -3.892995958 2.554075044
13.34886068 -3.874579145 2.4974348970000007
13.34897163 -3.904025855 2.583372142
13.34898255 -3.83337517 2.376829078
13.34912898 -3.840313023 2.39538368
13.34916627 -3.980927043 2.802610387
13.349219930000002 -3.8171161330000003 2.3226300150000005
13.34962374 -3.926589054 2.651731583000001
13.34968286 -3.956724934 2.7410871629999987
13.35715163 -3.923371035 2.633176981
13.36119161 -3.880743928000001 2.516477897
13.36522521 -3.8426169999999997 2.404660981
13.3766612 -3.87780194 2.507689450000001
13.39266467 -3.8724798039999992 2.4896218830000016
13.39667736 -3.84786001 2.423703981000002
13.40089378 -3.860311902 2.452025191000001
13.40842621 -3.949564027 2.7225316530000003
13.41250439 -3.85360506 2.4339576240000005
13.41632881 -3.813730994 2.315305855
13.42032968 -3.925909889 2.6444069669999997
13.42442604 -3.81644288 2.3328841130000004
13.43234319 -3.931702916 2.664427219
13.43639499 -3.91539704 2.6155987220000005
13.448232980000006 -3.9630798010000015 2.7640359880000003
13.45225112 -3.9031350049999993 2.586302079
13.45642207 -3.9425970710000016 2.6951890590000005
13.46398906 -3.881544965 2.5198962330000003
13.46416096 -3.808831091 2.2987043930000004
13.46421826 -3.9359359310000004 2.6751688060000003
13.46429556 -3.855594125 2.4442121770000016
13.46449838 -3.861844855 2.45446582
13.46455295 -3.958128057 2.744992988
13.46638285 -3.842250929 2.407102974
13.46860839 -3.809525945 2.3070048960000005
13.48042727 -3.804566016 2.2982159939999995
13.48457002 -3.862036986 2.4637431210000003
13.48829986 -3.8806839010000003 2.5115952750000003
13.496350699999999 -3.945736192 2.706419044
13.50040068 -3.898606176000001 2.5687238200000007
13.50859159 -3.811974077 2.3172589939999995
13.51261247 -3.81367506 2.317746938
13.51377298 -3.97965898 2.807981863
13.51639142 -3.933109904 2.6585682539999995
13.52026223 -3.8308988430000013 2.3719460010000004
13.52420307 -3.948269134 2.7171610860000004
13.5283158 -3.9267730000000003 2.657103058000001
13.536040140000004 -3.965130939 2.7586649680000006
13.540010999999998 -3.90137104 2.57067696
13.544085529999998 -3.8054109360000004 2.2913797770000004
13.55558064 -3.8045830689999995 2.300169134
13.56777332 -3.830130093 2.3646218410000017
13.57034628 -3.973714068 2.790402695
13.57181785 -3.915299042 2.6199934010000008
13.57887916 -3.904770959 2.5911851560000008
13.5793421 -3.815108196 2.3280005820000005
13.57939212 -3.849744938 2.4290750020000003
13.57959584 -3.983789905 2.8309306880000005
13.579644960000005 -3.921453138 2.6400127430000007
13.57995237 -3.9616530310000004 2.7596417650000005
13.58146577 -3.845405056 2.411497196999999
13.58875718 -3.986241902 2.831907031
13.59611136 -3.8926178360000003 2.544310254
13.61611024 -3.8716780839999996 2.4876691980000003
13.61938624 -3.9754869 2.802610387
13.63999993 -3.9026459239999993 2.583859631
13.64817447 -3.891166964 2.5462633939999995
13.65610981 -3.962095045 2.7630601010000007
13.66417612 -3.8858421 2.5364967850000006
13.672287 -3.914879083 2.6151098690000003
13.67615144 -3.883320981 2.5277078830000006
13.68018414 -3.845194053 2.4144271349999986
13.69389659 -3.913112162 2.6068098200000005
13.69401483 -3.9380568730000003 2.6854229039999997
13.69407121 -3.871221063 2.490599135
13.69416034 -3.980322001 2.816770765
13.69447685 -3.817572017 2.332396169
13.69469604 -3.84564198 2.4241928340000003
13.69678878 -3.960095067 2.7557350300000003
13.704806890000002 -3.946179798 2.706419044
13.73310036 -3.872555065 2.5013407219999997
13.73351327 -3.97752485 2.79968136
13.737460480000005 -3.8302978939999988 2.362180757
13.76989306 -3.915621003 2.6199934010000008
13.77385936 -3.8871858789999996 2.541867806
13.78212576 -3.9494810360000003 2.7205789670000016
13.79050039 -3.84727998 2.428098659
13.79446215 -3.854171903 2.447142114
13.80277402 -3.920280117 2.6317122400000006
13.80667121 -3.804566925 2.300169134
13.80907227 -3.857742807 2.4573957570000005
13.809237800000002 -3.886503075 2.5433330020000016
13.80939423 -3.822789788 2.3548570510000006
13.80952793 -3.9357028730000003 2.6815170790000002
13.80960342 -3.9876579860000003 2.8348369680000003
13.80991173 -3.961708965 2.7620828490000005
13.80999268 -3.846038974 2.4202860989999984
13.81128962 -3.8956680539999993 2.5633527990000005
13.81548967 -3.820152026 2.346068149
13.81945324 -3.924016094 2.651731583000001
13.82352141 -3.863382128 2.468137798999999
13.827706 -3.863016057 2.468137798999999
13.84014516 -3.867802955 2.4788802960000007
13.848348800000002 -3.8383160000000003 2.3944068819999997
13.860948029999996 -3.84103789 2.4041730370000005
13.86941634 -3.878761911 2.5179430930000004
13.87341629 -3.8939679810000003 2.566281827
13.89010188 -3.924022915 2.64684896
13.89836555 -3.955495979 2.738157226
13.910851999999998 -3.964096843 2.7689190660000005
13.91913386 -3.854267855 2.4447001210000003
13.92334391 -3.805073968 2.3050522110000005
13.92405059 -3.857771001 2.445676918000001
13.9240706 -3.879592053 2.512083219
13.92416519 -3.984192129 2.831907031
13.92428433 -3.846014872 2.4256571200000003
13.92463358 -3.956174008 2.749388121999999
13.92463722 -3.823877999 2.3514387150000005
13.92555399 -3.944471994 2.7000712259999995
13.92802963 -3.855660064 2.445188974
13.932076880000002 -3.808531185 2.3143290569999997
13.9406425 -3.915527098 2.6292711560000006
13.96508517 -3.864456924 2.4754624150000017
13.96913061 -3.91880378 2.6409890860000003
13.97335612 -3.860606123 2.466184659
13.97777353 -3.879307835 2.515013156000002
13.99459282 -3.925305075 2.653685177
13.998712830000002 -3.802335935 2.2991932460000006
14.00714476 -3.893390906 2.5560281840000005
14.01153943 -3.8286239689999992 2.365599093
14.01546845 -3.985821034 2.8294659469999988
14.015551220000004 -3.8701539989999993 2.4974348970000007
14.01995863 -3.928684075 2.664915162999999
14.02408137 -3.933509854 2.6756572050000003
14.02426236 -3.984090038 2.8294659469999988
14.0282032 -3.938334951 2.695677002000001
14.03845502 -3.984164162 2.8304427440000017
14.0393154 -3.911503038 2.61657461
14.03963645 -3.942699161 2.706906988
14.03998479 -3.858913099 2.452025191000001
14.0400048 -3.8454071030000003 2.422728093
14.04031039 -3.95175591 2.746458184
14.04037496 -3.9773888810000004 2.8099350030000005
14.04132266 -3.881529049 2.519406925
14.04837215 -3.976978926 2.7913799470000003
14.05018932 -3.803955972 2.293332917
14.05862307 -3.925833037 2.6761460580000005
14.071299599999998 -3.9805109489999992 2.82262973
14.07156699 -3.880095003 2.529661023
14.07580888 -3.909867994 2.6092509040000005
14.07596986 -3.973950991 2.783567842
14.08454094 -3.81635193 2.331907316000001
14.08897563 -3.856873102 2.45446582
14.09329482 -3.969422843999999 2.783567842
14.10158214 -3.8242699910000004 2.3602276170000005
14.10593043 -3.918815148 2.6409890860000003
14.1193 -3.96904404 2.7757552819999995
14.123456400000002 -3.8235639960000003 2.3529030010000005
14.13641942 -3.896620067 2.5736068969999986
14.14519059 -3.811418831 2.3167710510000017
14.14953161 -3.910463941 2.614621925
14.15420368 -3.837755069 2.3924537430000017
14.154240060000005 -3.978368862 2.809446149
14.15427008 -3.894210816 2.5745827850000005
14.15455748 -3.912588975 2.624388079
14.15467662 -3.871386137 2.4969460439999978
14.15509408 -3.844059004 2.4202860989999984
14.155484250000002 -3.962535013 2.757688625
14.15875934 -3.934045092 2.6854229039999997
14.16304033 -3.875159175 2.516477897
14.16770877 -3.837776897 2.3929430510000005
14.18035075 -3.945785986 2.718137884
14.184618100000002 -3.926726843 2.666868303
14.194155970000002 -3.858208923 2.4608140930000006
14.204456900000002 -3.907852099 2.617551862
14.20557649 -3.80542708 2.292845428000001
14.20789479 -3.94344813 2.7196026250000003
14.20923084 -3.935241077 2.699095338
14.22246217 -3.97402989 2.794797828
14.22294056 -3.906186132 2.6004620020000004
14.227970980000002 -3.908313895 2.6102277010000003
14.22928247 -3.882787107 2.531614162999998
14.23053484 -3.959424087 2.7630601010000007
14.23832376 -3.957265856 2.7347393449999986
14.243366910000002 -3.950389849 2.7239968480000005
14.2472077 -3.83536287 2.3885479180000004
14.25090298 -3.97349397 2.806517122
14.25248004 -3.882878966 2.5330789040000017
14.269313880000002 -3.919874028 2.6346421770000013
14.26963584 -3.818770049 2.3426498130000004
14.26964766 -3.8450919630000002 2.4276098060000004
14.26971133 -3.8707237969999997 2.5047586030000017
14.26997053 -3.907111998 2.6038798830000003
14.26999691 -3.955252007 2.746458184
14.277715789999998 -3.931962122 2.6849349610000006
14.28933368 -3.788454999 2.3470440360000007
14.62004141 -3.943269869 2.737180884
14.620973640000004 -3.891739036 2.5828841980000004
14.62118738 -3.9551349100000013 2.7596417650000005
14.622109599999998 -3.974253853 2.8133528839999995
14.62371304 -3.834811035 2.4051502890000016
14.624236910000002 -3.806106018 2.3182348820000005
14.62566027 -3.90700013 2.605345079
14.625888550000004 -3.8644200889999993 2.484251317
14.63624224 -3.816400133 2.339231932000001
14.64091068 -3.875987952 2.5159890439999995
14.64594109 -3.811967029 2.3206768760000003
14.65568906 -3.908320034 2.6082750159999986
14.66018833 -3.81135312 2.3216527630000003
14.67001724 -3.955161058 2.744992988
14.68493477 -3.835810114 2.4007547010000003
14.69149223 -3.97277888 2.800656793000001
14.69490192 -3.894083032 2.5711649040000006
14.70484179 -3.970364853 2.7918678910000008
14.709840369999998 -3.893525057 2.562863946
14.719647449999998 -3.8215658360000004 2.3548570510000006
14.7294036 -3.9134179789999988 2.625853275
14.72966554 -3.817505169 2.346068149
14.729790140000002 -3.934920026 2.6883528420000005
14.7300448 -3.843508078 2.4241928340000003
14.73029491 -3.950544008 2.74059922
14.73079331 -3.904520848 2.595578925
14.73154092 -3.868563065 2.494017016
14.73498153 -3.838009045 2.4051502890000016
14.7395281 -3.841828923 2.415403022
14.744529409999998 -3.8927860919999993 2.5657938830000004
14.75443017 -3.9607530860000004 2.765013241
14.759546990000002 -3.842709996 2.426145974
14.764481900000002 -3.837210054 2.407102974
14.774091619999998 -3.95294712 2.7362040860000008
14.78427069 -3.946819855 2.725949988
14.79916094 -3.876299 2.5203841770000004
14.80419954 -3.83859908 2.401242645
14.81450775 -3.883738894 2.5325909600000003
14.82996552 -3.9206250430000003 2.64684896
14.83995996 -3.9300680989999996 2.669309842
14.8447921 -3.987592047 2.8411852410000007
14.84481757 -3.938761959 2.7010480230000007
14.84489579 -3.858419016 2.4642319740000005
14.845175 -3.9474480880000002 2.7225316530000003
14.84517773 -3.815150033 2.3450908970000004
14.845349630000005 -3.90555608 2.5970441210000006
14.845931699999998 -3.840838029 2.4144271349999986
14.847703400000002 -3.954917995 2.7445050449999986
14.85057012 -3.821460789 2.3558329380000003
14.85575333 -3.826023951 2.3753643370000006
14.858041619999998 -3.982052997 2.8411852410000007
14.86319027 -3.9737979689999996 2.800169303000001
14.86569684 -3.800830948 2.2982159939999995
14.870910970000002 -3.884360079 2.5472388269999997
14.87609509 -3.8227741 2.357786078000001
14.88141473 -3.8079529739999995 2.3192116800000004
14.89200034 -3.845149033 2.4285870580000006
14.90215757 -3.8525279910000014 2.449583198
14.92830555 -3.828260854 2.372435309
14.93896391 -3.8204398810000004 2.3533918550000017
14.959893210000002 -3.814118211 2.335325196999998
14.96026883 -3.844624937 2.4246807780000017
14.96041253 -3.886888019 2.5467513380000018
14.96043345 -3.87338316 2.5062237990000003
14.960640810000005 -3.941279895 2.694700205
14.96121743 -3.978036896 2.812376087
14.96182679 -3.961461128 2.7586649680000006
14.97883798 -3.987386047 2.8470442060000005
14.98148916 -3.8875048839999993 2.549193331
14.990028400000002 -3.977181971 2.805540324
14.99201201 -3.8329190580000003 2.3875711200000005
15.00756892 -3.939078918 2.699095338
15.01335512 -3.865419169 2.4808329810000016
15.01882573 -3.888359809 2.553099156000002
15.04016521 -3.956186058 2.746458184
15.04591049 -3.9403588039999993 2.703489107
15.051100970000002 -3.940421105 2.704465905
15.05660069 -3.848381832 2.4339576240000005
15.06219226 -3.860941954 2.474974016
15.07290702 -3.9494069119999997 2.7283919820000007
15.07485243 -3.827651038 2.3748759390000016
15.07498339 -3.909741802 2.6116928969999997
15.07536447 -3.935746984 2.6859108480000007
15.07537448 -3.962068897 2.7718490030000007
15.075892890000002 -3.871716965 2.507199687
15.07643131 -3.834009088 2.39538368
15.095349710000002 -3.82683704 2.376829078
15.10615269 -3.892101925 2.5623760020000006
15.11763779 -3.864953053 2.4808329810000016
15.122634550000004 -3.951234997 2.7347393449999986
15.12877273 -3.9215868339999993 2.6492900440000002
15.13976034 -3.808158974 2.3114000300000006
15.14524368 -3.888246122 2.5560281840000005
15.162237589999998 -3.86153017 2.465207862
15.184212800000005 -3.960921115 2.7542707440000003
15.1901709 -3.911515999 2.614621925
15.19039554 -3.8381120460000004 2.406126176000001
15.19059654 -3.97666083 2.809446149
15.19071205 -3.8076610260000003 2.3245827010000006
15.19085575 -3.9468969339999997 2.7117900650000006
15.19111677 -3.850982987 2.4466532600000006
15.1918471 -3.9563258930000003 2.7440171010000007
15.19591891 -3.829541877 2.3763411340000005
15.20204253 -3.875045943 2.5198962330000003
15.20699382 -3.891366826 2.562863946
15.21353036 -3.8125700239999993 2.3367899380000017
15.22487631 -3.9679251339999992 2.7811258489999995
15.23039694 -3.862382139 2.481321379
15.24192479 -3.808221047 2.3197000780000003
15.24761458 -3.9562031109999993 2.7508528630000004
15.253112480000002 -3.8333428830000003 2.401242645
15.25908695 -3.871908187 2.5057349460000014
15.27041562 -3.84232096 2.423703981000002
15.27652105 -3.866004884 2.4866928550000007
15.28178794 -3.948845981 2.7230209610000005
15.29385784 -3.918623018 2.6375712050000004
15.30506282 -3.868593988 2.4998759810000006
15.305171960000004 -3.801067872 2.2947981130000006
15.30520652 -3.844708156 2.427121862
15.30529838 -3.918484092 2.6385480020000003
15.30561215 -3.88802989 2.553099156000002
15.305676730000005 -3.979813821000002 2.8250708139999996
15.30575676 -3.9302950180000003 2.671262981000001
15.307453880000002 -3.961598007 2.7596417650000005
15.34149536 -3.805999152 2.317746938
15.34736705 -3.810616202 2.328978288000002
15.35303139 -3.910458029 2.6121808410000007
15.35911682 -3.815348985 2.340208274
15.36477842 -3.818217986 2.350949861
15.37604797 -3.987765079 2.8572978489999987
15.383295730000002 -3.8955188960000013 2.5623760020000006
15.389101949999995 -3.940652116 2.703489107
15.39503003 -3.9754041360000003 2.8045639819999995
15.39524831 -3.9373240480000002 2.683469765
15.40076713 -3.867107191 2.4993880369999992
15.406802529999998 -3.8035100919999993 2.303587015
15.412714250000002 -3.847265882 2.4378639040000016
15.418720550000005 -3.898647103 2.587278422
15.42015937 -3.959715125 2.752806003000001
15.42029034 -3.878683922 2.523314114
15.42034855 -3.842669069 2.41833296
15.42048679 -3.854109148 2.449583198
15.42094881 -3.830595072 2.377317931999998
15.42097428 -3.914063948 2.6307349880000004
15.425592689999998 -3.842044019 2.4188209039999986
15.45003627 -3.857124123 2.4632547220000003
15.456149900000002 -3.810156907 2.3284889799999986
15.46238721 -3.915931823 2.6361069180000003
15.46817887 -3.8069459360000004 2.3192116800000004
15.49534184 -3.972546959 2.796262569
15.499132619999996 -3.955182886 2.751340807
15.50520622 -3.802928016 2.302122274
15.51754988 -3.963210086 2.776243226
15.52385814 -3.926995144 2.66589196
15.53056475 -3.841631108 2.4188209039999986
15.53517407 -3.840260045 2.4193097570000006
15.53518499 -3.800434863 2.2947981130000006
15.53550877 -3.86245308 2.4827861209999997
15.53553423 -3.976744959 2.8133528839999995
15.53561427 -3.927226155 2.6673571560000005
15.53739688 -3.8736842019999997 2.515013156000002
15.53740233 -3.935332027 2.6898180380000003
15.53762971 -3.958899991000001 2.757199772
15.5433959 -3.83259596 2.3988020160000008
15.55002066 -3.9598729219999993 2.759152911000001
15.56215696 -3.889135835 2.5609112609999998
15.58738452 -3.911897986 2.6190170580000003
15.600433949999996 -3.864782068 2.479857093000001
15.60635476 -3.97018591 2.800169303000001
15.612886760000002 -3.926715019 2.666379904
15.62544324 -3.956447083 2.757688625
15.638781890000002 -3.896887004 2.581419002
15.65027426 -3.8960579989999986 2.5823962540000003
15.65049618 -3.8579790480000002 2.4739967640000002
15.65082178 -3.950822086 2.7386460800000005
15.651047330000004 -3.8112680819999993 2.3358140510000016
15.65154938 -3.959191029 2.761594905
15.653120980000002 -3.837750976 2.4100320010000003
15.65805044 -3.836753943 2.41052131
15.66500626 -3.858426974 2.465207862
15.69164536 -3.9557590510000016 2.7557350300000003
15.71138685 -3.964583878 2.781613793000001
15.72432168 -3.892524158 2.5697001629999985
15.730981 -3.966469942 2.784544185000001
15.73769489 -3.810455903 2.333860001000001
15.75719264 -3.967836003 2.78845001
15.76012667 -3.987806915 2.857785793000001
15.76407752 -3.968376925 2.789426807
15.765347169999998 -3.9037129889999993 2.597532065
15.76536718 -3.956354997 2.7552470860000007
15.765510880000004 -3.835497021 2.4110092540000005
15.76558182 -3.85663004 2.465207862
15.765634570000005 -3.9220900110000003 2.653195869
15.76724983 -3.972089028 2.801634045
15.771526279999994 -3.882378972 2.542356659
15.775124239999998 -3.982059136 2.826048066
15.792000819999998 -3.798097917 2.296751253
15.81892914 -3.913809972 2.637082806
15.8234275 -3.979965025 2.821652933
15.82586677 -3.847513038 2.4393291
15.83243514 -3.847681976 2.4403063520000003
15.83946189 -3.8904871169999997 2.561888058
15.84609393 -3.916289936 2.6409890860000003
15.85332441 -3.899194847 2.586302079
15.867539820000005 -3.88576593 2.554075044
15.880747499999998 -3.871910006 2.5115952750000003
15.88103854 -3.987261901 2.842161129
15.88152602 -3.81794491 2.358274932
15.88166791 -3.926356906 2.668333044
15.88169883 -3.842200906 2.423703981000002
15.882113560000004 -3.814874001 2.348020834
15.8823573 -3.957234024 2.749388121999999
15.88263561 -3.852319035 2.45641896
15.88916032 -3.910320923 2.613645583000001
15.89493743 -3.973462138 2.8089582060000007
15.896419910000002 -3.941370162 2.7054431569999995
15.91763115 -3.957927968 2.765501184000001
15.93173377 -3.848900926 2.4403063520000003
15.94600374 -3.803962111 2.3114000300000006
15.95304141 -3.806939115 2.3226300150000005
15.96727319 -3.815329885 2.34557884
15.9744782 -3.847066021 2.4339576240000005
15.98932116 -3.838881023 2.413449883000001
15.995463880000004 -3.870880003 2.5135479599999986
15.99586406 -3.984854013 2.847532150000001
15.99605324 -3.933958008 2.695677002000001
15.99605324 -3.867809094 2.502805918
15.99660803 -3.918070045 2.6497779880000003
15.99699547 -3.8426010839999996 2.425168722
15.99914188 -3.956365911 2.765501184000001
16.019234439999998 -3.876900858 2.5277078830000006
16.02619935 -3.827925023 2.384153239
16.03357717 -3.950066069 2.7362040860000008
16.04077855 -3.818680009 2.3533918550000017
16.04834554 -3.823777045 2.3651097839999995
16.05557057 -3.842006957 2.431516995
16.09346376 -3.923946972 2.6629620230000004
16.10122175 -3.908971915 2.6180398060000005
16.10843222 -3.839231861 2.415403022
16.11078963 -3.853269912 2.4598368410000004
16.11097881 -3.934674008 2.7000712259999995
16.11107521 -3.8100018380000003 2.33776719
16.11108067 -3.8716501169999997 2.516477897
16.11297969 -3.97535184 2.818723905
16.1129997 -3.9618469810000003 2.7713601489999995
16.11431847 -3.83484696 2.404660981
16.116750460000002 -3.9669879 2.7952857720000006
16.12433928 -3.958580985 2.7723369469999994
16.13199905 -3.90515613 2.6102277010000003
16.137092220000007 -3.963738957 2.7640359880000003
16.16197963 -3.836512927 2.4100320010000003
16.192444060000007 -3.929297984 2.6771219460000006
16.19613116 -3.939631891 2.7122780090000003
16.19793741 -3.9695579039999993 2.796262569
16.20520428 -3.863803907 2.493528163000001
16.21112145 -3.84141192 2.4266339180000003
16.21648383 -3.9627030430000003 2.786496870000001
16.22562243 -3.97865899 2.8358142200000005
16.22574794 -3.835980872 2.4056382330000003
16.225997140000004 -3.94301703 2.7059311000000004
16.2261081 -3.906315053 2.6004620020000004
16.226455530000006 -3.954827955 2.752806003000001
16.22813809 -3.86283484 2.485228114
16.23793699 -3.830704893 2.39538368
16.24718837 -3.937754011 2.6859108480000007
16.28037219 -3.9517911530000003 2.7601297089999997
16.28177282 -3.841421015 2.4232160370000004
16.29078955 -3.832432024 2.477415099999999
16.292695849999994 -3.7993341469999997 2.343626155
16.308710230000006 -3.95839613 2.821196366
16.34220874 -3.972802981 2.818755282
16.342665300000004 -3.887640853 2.5692431419999986
16.34417688 -3.83754202 2.420317022
16.349866679999998 -3.95470199 2.7679736460000006
16.352333230000006 -3.9365400630000003 2.717680863
16.352837089999994 -3.8198669 2.3705130919999986
16.357537360000002 -3.861448997 2.493559085
16.41080829 -3.800523994 2.317778316
16.42389773 -3.960172146 2.7860403030000005
16.45672685 -3.899371971 2.6097702259999997
16.45680325 -3.916002081 2.6590866660000003
16.46114336 -3.984223961 2.8568412830000005
16.46604736 -3.833609137 2.4125049180000007
16.46706417 -3.957329066 2.78164517
16.474392880000007 -3.815561807 2.3631880219999997
16.47921866 -3.974561035 2.8299852680000006
16.479462400000006 -3.856828082 2.484769729
16.51103824 -3.9486620360000004 2.7528369249999987
16.572387300000006 -3.9039560510000015 2.6249069460000007
16.573369550000002 -3.820913046 2.381255133999999
16.574095330000002 -3.895431812 2.600004981000001
16.584236190000002 -3.977961863 2.8446340450000003
16.58549493 -3.9531249269999993 2.7704147300000006
16.58834347 -3.8286701260000013 2.404203959
16.595122840000002 -3.8614107989999993 2.5008841560000006
16.61306536 -3.901956073000002 2.6214890650000005
16.979106050000002 -3.914209922 2.653685177
16.98155077 -3.84340485 2.443235379
16.98196368 -3.8822259489999986 2.554075044
16.98291865 -3.848012805 2.4554430719999987
16.98307872 -3.97824608 2.8333717720000005
16.98311692 -3.955739042 2.7689190660000005
16.98500503 -3.834670063 2.4188209039999986
17.01573504 -3.796217991 2.3011459320000016
17.031691209999998 -3.8179039830000003 2.363646406999999
-0.2258510109000001 -4.188788874 3.292967639
-0.2225029903 -4.084460053999998 2.9946279110000003
-0.22044000060000005 -4.0537991689999995 2.948241862
-0.21859301580000004 -4.1228639230000015 3.1098627090000006
-0.2175000021 -4.23239005 3.436522737
-0.21702800280000006 -4.072076147 2.973144282
-0.21670598480000008 -4.200243959 3.3422849889999995
-0.21465899649999998 -4.178586162 3.3398429960000007
-0.2145700081 -4.058415991000001 2.929198862
-0.2062519969 -4.089200113 3.0439448060000007
-0.1567420044 -4.1599319710000024 3.291502898
-0.1149649905 -4.1659839760000015 3.3071280169999997
-0.11471399840000004 -4.109897939 3.1440419739999994
-0.1112269957 -4.017008971 2.871093065
-0.1073169927 -4.05541193 2.9858390089999998
-0.10446599680000004 -4.191051014 3.3818352760000003
-0.1042430001 -4.086823149 3.0781249820000003
-0.09309499670000004 -4.2006029819999995 3.4101560310000005
0.0032879938 -4.172848842 3.3281246110000016
0.0034860077999999683 -4.148274977 3.2573236320000003
0.0039480026999999815 -4.124760901 3.187010597
0.007694992999999997 -4.068256951 3.025390205
0.013826003399999995 -4.2062318450000005 3.427245891
0.017634000799999994 -4.078388950000001 3.052246219
0.017963003399999997 -4.038933023 2.937010967
0.11409900037999998 -4.0980879230000005 3.109374765
0.122743000113 -4.155565032 3.277342975
0.122952000042 -4.060340937 2.996093107
0.123614999919 -4.043075999 2.9497070580000004
0.127721000126 -4.1892040580000005 3.3749999680000013
0.12807700002199998 -4.19788996 3.3994139889999997
0.132180999828 -4.083923907 3.0688467710000014
0.137900999858 -4.1169281060000005 3.16455017
0.14010999994999998 -4.093205073 3.0947259879999987
0.2325759993 -4.194671031 3.3901357789999995
0.2332519954 -4.137579092 3.2226559680000006
0.2367849986 -4.048504091 2.9643549249999985
0.2369460005 -4.112587087 3.152342932
0.24648699780000002 -4.0748939889999996 3.0380849320000003
0.2503950042 -4.179446999 3.3486318980000007
0.2632110067 -4.082441885 3.0668940860000005
0.2892840029 -4.193367043 3.4256379050000003
0.2907629976 -4.130450928 3.3177272680000005
0.2910740021 -4.069174177 3.0418479660000006
0.2918710037 -4.067851999 3.2020049810000013
0.30805499300000005 -4.179257142 3.338235009
0.3174749991 -4.085794965 3.0618682180000008
0.3306529947 -4.059122896 2.9891140989999987
0.3346829941 -4.056323017 2.9773948049999985
0.3394689968 -4.043884085 2.9422391969999997
0.3441070077 -4.0906568960000005 3.0779808269999998
0.3449740119 -4.176616196000001 3.3284697650000004
0.34543700159999996 -4.08695207 3.0662628970000005
0.345735998 -4.131652143 3.195657163
0.34618399520000004 -4.050992013 2.963234882
0.3464949997 -4.15283814 3.2664581420000003
0.34789499630000004 -4.073291914 3.031105924
0.3498030025 -4.203315096000002 3.4134311219999995
0.3728509909 -4.099494911000002 3.1058131830000004
0.3772470051 -4.131703984 3.209817086
0.3811420014 -4.179111168 3.3426301420000017
0.3856459897 -4.1129679380000015 3.14926975
0.3898599912999999 -4.094597964 3.0906769180000007
0.4074509831000001 -4.121954883 3.1785668480000013
0.41575302119999996 -4.0647701760000015 3.00425082
0.44749100420000004 -4.088387934 3.0765160850000006
0.4535580159000001 -4.0376081169999996 2.928078819
0.45943599490000003 -4.103872991000001 3.130227205
0.4600719875 -4.201587965 3.4070828489999987
0.4603510034 -4.127495979 3.1897977430000006
0.4603759861 -4.144813895 3.2371610440000005
0.4605940091 -4.075911031 3.0389189389999998
0.4608029939 -4.077658853 3.049661434999998
0.460883001 -4.19126088 3.3816920300000017
0.4711129974 -4.153622806 3.269876023
0.5159049861999999 -4.063978916000002 3.0037628760000006
0.5211009863 -4.125686994 3.185891009000001
0.5266860227 -4.045776971 2.9563991200000004
0.5376550120000001 -4.139802125 3.228371687
0.5486679981 -4.206817105 3.4197780300000016
0.5593899742 -4.0615069089999984 3.0047387639999985
0.5750860054 -4.082133794 3.0579619389999997
0.5751390118999999 -4.147594903 3.2542509039999996
0.5753610138 -4.206489005 3.424173164
0.5755629785 -4.049617085 2.967630015
0.5756290021 -4.17222311 3.326027771000001
0.5761140186 -4.069055033 3.0232942739999995
0.5765750186999999 -4.111690098 3.148293862
0.5823980017 -4.112492955 3.147317065
0.5876530053 -4.138187999 3.22739489
0.5928430084 -4.0412770180000015 2.9422391969999997
0.603851987 -4.0774678589999995 3.050638233
0.6147369900999999 -4.093215078 3.0936059460000003
0.6248310171 -4.1719320710000005 3.32456303
0.6305910175 -4.147101957 3.2518089110000004
0.6462069846999999 -4.054126814 2.9847203300000014
0.6517189774000001 -4.1162080130000005 3.1644073799999988
0.6572219886999999 -4.151966162 3.268411282
0.6618750204999999 -4.189734975 3.375345122
0.6673010089999999 -4.076564049 3.047220352
0.6728029971999999 -4.17847202 3.3475132190000005
0.6836199587999999 -4.137762128 3.225930603
0.6883629736 -4.152334052 3.2718291630000005
0.6904240022999999 -4.024698976000002 2.8992696650000003
0.6905119959 -4.133801051000002 3.2127470230000004
0.6906370515000001 -4.057271165 2.9969271139999996
0.6913830075999999 -4.184433986 3.366555765
0.6921560213 -4.099642931 3.1199726519999995
0.6938039688 -4.193280868 3.390480932
0.6938719536 -4.086617148 3.0750517990000006
0.6948690439999999 -4.157693022 3.2928248480000004
0.7056060268000001 -4.16650307 3.3143089320000003
0.7359060134000001 -4.032082027 2.9217310010000004
0.7412109823 -4.09241404 3.0970242810000004
0.7515100434 -4.14205608 3.243508862
0.7616229992 -4.176444075 3.3362818690000005
0.7669790135 -4.042141948 2.9476102180000003
0.7767340263 -4.067845178000002 3.0223170219999997
0.7819940321 -4.058214083 2.9983909450000006
0.7973660273000001 -4.01682298 2.876809239
0.8052579970999999 -4.114762144 3.160989044
0.8056399848999999 -4.074617957 3.048195785
0.8056560146999999 -4.162586786000001 3.3001490089999996
0.8065229904999999 -4.085421845 3.0809107639999995
0.8077070389 -4.1717529010000005 3.324075086000001
0.8086609852 -4.203690035 3.4192900870000016
0.8230410059000001 -4.122046969 3.1897977430000006
0.8380820018999999 -4.089288107 3.0857942960000004
0.848122994 -4.102542855 3.1277861210000006
0.8528340059999999 -4.104299999 3.1375518200000005
0.8579820302 -4.065221968000001 3.0247590160000004
0.8776479772999999 -4.0220898630000015 2.8919459589999996
0.8967469681 -4.131646003999999 3.2073760019999997
0.9020720028 -4.0814998760000005 3.0701691770000004
0.9203000387000001 -4.043450938 2.957375917
0.9204839841 -4.191001902 3.3880398489999988
0.9205369620999999 -4.093340133 3.099954219
0.9207730328 -4.14323001 3.2469271980000003
0.9210570226 -4.196934081 3.40073503
0.9213449912999999 -4.052190955000001 2.978860001
0.9223610106 -4.078938057 3.0550320020000017
0.9320760056 -4.162474008999999 3.3021016939999996
0.9368839925 -4.202680041 3.4197780300000016
0.9463460343 -4.1483570589999985 3.2635277500000006
0.9511840346 -4.104406865 3.1365750230000002
0.9561119611 -4.200380838 3.41440701
0.9607599906 -4.1103538230000005 3.1565952750000017
0.9654500274 -4.059465093 3.001320882
0.9849010495 -4.1160602200000005 3.173195827
0.9989139754 -4.16253017 3.3074731700000006
1.003550011 -4.112329928000001 3.158058652
1.0130949874 -4.2024331130000006 3.4231959120000006
1.0178420381 -4.084706982 3.0770049389999987
1.0268760490000002 -4.163687957 3.3016137500000005
1.0355699657 -4.158828981000002 3.2879417710000007
1.0358670294 -4.040406859 2.943704393
1.0361090118 -4.05497219 2.9866730159999992
1.0363060311 -4.096547011000001 3.116066827
1.0363269495 -4.0830430610000015 3.0726098060000004
1.0363390003 -4.206336892 3.4290557860000015
1.0366859725 -4.18870088 3.3807161430000003
1.0370600022 -4.056085866 2.996437805
1.0422150181999998 -4.17562894 3.34360603
1.0470319864 -4.0790349180000005 3.059427135
1.0558349856 -4.072798968 3.046242644999998
1.0698279595 -4.163598144 3.3128451000000005
1.0744859934 -4.196864958999998 3.4061060510000014
1.0977819612000002 -4.16925793 3.3289577089999995
1.1249719875 -4.02593498 2.904152742
1.138921021 -4.143743875 3.2498562259999995
1.143040009 -4.18389511 3.375345122
1.150603936 -4.092018865 3.10141896
1.150673967 -4.179301025 3.3509311010000005
1.150773897 -4.085452995 3.079446023
1.150862005 -4.031431966 2.9197778610000014
1.1512049979999999 -4.1460940090000005 3.2581567289999995
1.1513040190000006 -4.052245978999999 2.9827662810000013
1.1529809000000002 -4.194026881 3.3973171489999996
1.1622250040000002 -4.045485023 2.959817001
1.1666100190000002 -4.117519959 3.1751489669999997
1.1707249140000002 -4.192996878 3.3929229260000007
1.1797369840000005 -4.122360972 3.193703568
1.1845129680000002 -4.083601036000001 3.0721218620000004
1.193486042 -4.167772043 3.3274929669999995
1.197586954 -4.022980941 2.899758973
1.202352024 -4.1871699730000005 3.3836451699999985
1.206594931 -4.1507920039999995 3.2776881280000003
1.21526503 -4.062465971 3.0115749800000016
1.220073983 -4.03652309 2.9368677210000005
1.224561998 -4.208654966 3.4383330869999997
1.22890097 -4.047605965 2.966652763
1.251006921 -4.132116212 3.221535924999998
1.2549240009999996 -4.166016945 3.3128451000000005
1.264088979 -4.066994118 3.0228058760000005
1.265616021 -4.104863886 3.140480848
1.2657010590000002 -4.1831420480000014 3.368020051
1.2657590390000002 -4.147128105 3.2537629600000004
1.2658339579999998 -4.199082989 3.4148954080000005
1.2659029659999999 -4.026268992 2.907083134
1.2659219520000002 -4.078912819 3.0643088480000005
1.266679902 -4.06927604 3.03257112
1.27767899 -4.145292972000002 3.2503450790000006
1.281825035 -4.070466113999999 3.0394068830000003
1.2904089600000002 -4.133133027 3.2234890650000017
1.2990840620000002 -4.172603051000001 3.3362818690000005
1.30361596 -4.08845501 3.0892121770000003
1.31186394 -4.195080076 3.403177024
1.3165889920000002 -4.187832085 3.3787630030000004
1.325326963 -4.089814022 3.0945831980000005
1.3293610260000002 -4.117837146 3.1810088410000006
1.333990013 -4.169111046 3.3270050230000003
1.342119987 -4.087669888 3.0906769180000007
1.350667986 -4.1728461139999995 3.3353059820000004
1.355051978 -4.0817590820000005 3.0770049389999987
1.3589300630000003 -4.107345897 3.1419460439999995
1.363105895 -4.177633012 3.3543480720000005
1.380108102 -4.0141149590000005 2.874368155
1.3809549559999998 -4.144401894 3.2581567289999995
1.380989971 -4.1880419510000015 3.3846219680000003
1.3822649690000002 -4.0880530130000015 3.0926300580000015
1.3824560769999998 -4.067981147 3.038430995
1.3829129840000003 -4.079792073 3.0613802750000003
1.3830949970000002 -4.1965188960000015 3.4080587369999997
1.38962892 -4.0868990919999995 3.081398708
1.393445046 -4.1176759380000005 3.1775909600000016
1.401573996 -4.036235007 2.931985099
1.406462985 -4.123893925 3.19663396
1.4101989620000002 -4.041067835 2.950540155000001
1.4142509879999996 -4.024762186 2.9080590220000007
1.4266840079999998 -4.064873858 3.0198759389999994
1.4308549510000002 -4.170487112 3.3372591210000007
1.439132944 -4.095982897 3.1131377989999995
1.4435579770000002 -4.110185112 3.1556180230000006
1.4516529350000005 -4.148224046 3.264504548
1.4556780169999999 -4.0176269730000005 2.880715973
1.468308056 -4.165463063 3.3172388690000005
1.4720029920000002 -4.140471058 3.2479030860000004
1.476246922 -4.201066143 3.4202659739999994
1.480251996 -4.180947892 3.36069589
1.488532945 -4.071118904 3.048195785
1.4925380180000003 -4.050999972 2.985208274
1.4958840490000005 -4.175942034 3.3455591700000005
1.495894054 -4.03914198 2.944192337
1.4959389600000002 -4.10910395 3.1541528269999985
1.4963840440000002 -4.063769959 3.0164580580000004
1.4964139440000002 -4.142735927 3.2537629600000004
1.497413024 -4.147662887 3.2649929460000013
1.4976230030000002 -4.083262022 3.0789576239999996
1.4977499909999998 -4.200678016000001 3.415384262
1.501505977 -4.170495979 3.3323760439999996
1.513552007 -4.189104013 3.387063051
1.517766947 -4.104585126 3.1390161070000007
1.5261480540000003 -4.0640298470000005 3.0203643370000015
1.5300180680000002 -4.094119115 3.1048368410000005
1.542169031 -4.0143780300000005 2.874368155
1.5457980280000003 -4.096049973000001 3.111673058
1.557977072 -4.06445208 3.0237822180000014
1.5619420139999998 -4.036018093 2.9407740010000003
1.5739169900000003 -4.1304679810000025 3.2142117639999985
1.578256985 -4.1325409460000015 3.2239770089999995
1.605825929 -4.147520779 3.263039806
1.610769942 -4.168342978 3.3289577089999995
1.6110720080000005 -4.014595172 2.8719270710000013
1.6111320349999996 -4.075554964 3.0555204000000016
1.611315071 -4.1261331010000015 3.2054228620000016
1.6114769609999997 -4.124068094 3.1951692189999994
1.6118390530000002 -4.194401138 3.3987818910000005
1.611968997 -4.082546932 3.076027687
1.61430799 -4.043941156000002 2.961770141000001
1.6300910200000005 -4.076697972 3.0525913729999994
1.634117012 -4.043073953 2.9578638610000008
1.63758105 -4.0298389860000015 2.916847924
1.641657974 -4.030851935 2.916847924
1.6573800680000002 -4.165771154 3.3187040650000013
1.6691290340000002 -4.073530202 3.0535672599999986
1.6808550359999996 -4.157916985 3.291360107
1.6885150269999998 -4.104490993 3.135598225
1.6960570119999998 -4.026120971 2.9061058820000003
1.7033660530000003 -4.18877705 3.3880398489999988
1.7077329909999999 -4.075870104 3.056985141
1.711216925 -4.0183070480000005 2.8836450010000005
1.7189589980000002 -4.175455909 3.3397002050000006
1.7230669580000002 -4.18928614 3.3841340240000006
1.725853991 -4.13616983 3.235696303
1.7258779790000005 -4.056516057 3.001320882
1.7258899160000003 -4.0166888290000005 2.880715973
1.726238935 -4.192998925 3.405129709000001
1.726269971 -4.108843152 3.14926975
1.726718011 -4.191304991000002 3.3943881220000005
1.7281689960000004 -4.080247047 3.0643088480000005
1.730947957 -4.097780968 3.1258329810000003
1.7387010590000005 -4.118130912 3.179055701
1.7424320330000005 -4.07063096 3.0398948260000003
1.753663952 -4.165714993 3.3191920089999996
1.7655450220000002 -4.089417028 3.088723323
1.780229951 -4.047972036000002 2.9715358400000005
1.784307102 -4.048983849 2.9715358400000005
1.7916610490000002 -4.118481068 3.179055701
1.7993650369999996 -4.038046038 2.9476102180000003
1.803241986 -4.129781085000001 3.2093291420000005
1.806850975 -4.092661195 3.10141896
1.81059309 -4.168454846 3.3191920089999996
1.818060042 -4.104277944 3.1409701560000007
1.821820007 -4.201891964 3.4197780300000016
1.82911495 -4.0473090150000015 2.9725126380000004
1.8412000880000008 -4.074233014 3.0521020640000005
1.8412229390000008 -4.15770098 3.289894911
1.841227032 -4.122376206 3.1902856870000003
1.841293994 -4.178831953 3.357278009
1.841651084 -4.024397024 2.8919459589999996
1.842001012 -4.20070712 3.415384262
1.84372189 -4.0862069660000016 3.0833518480000004
1.855951979 -4.089244906000001 3.09165326
1.867083057 -4.0180830850000016 2.886086994
1.8707139869999998 -4.130578938999999 3.2166528480000007
1.874143919 -4.170676969 3.327980911
1.8819239640000005 -4.07604791 3.0555204000000016
1.899817022 -4.178926995 3.3460480230000003
1.907762026 -4.113055932000002 3.166360065000001
1.918428012 -4.100734098 3.1224150999999987
2.2853371600000005 -4.145845035 3.3738999340000007
2.286559976 -4.143516956 3.2777081370000003
2.2889439890000003 -4.167589916000002 3.4109886739999995
2.2894060119999997 -4.14407584 3.3807161430000003
2.2894080590000003 -4.077927154 3.1839378689999998
2.289466039 -4.0419129830000005 3.001320882
2.289812102 -4.024278108 2.9339377840000003
2.290130197 -4.195054837 3.4246811160000004
2.290411004 -4.144501029 3.3523949319999997
2.2907820780000003 -4.144182933 3.4090359889999995
2.291576067 -4.11203798 3.29966061
2.2920701500000003 -4.004366995 2.867531938
2.292423943 -4.079202947 3.0765160850000006
2.2976480809999997 -4.025932023999999 2.9339377840000003
2.301420892 -4.180691188 3.348001163
2.301522073000001 -4.020694016 2.897316980000001
2.3015670930000005 -4.156806038000001 3.2903837650000005
2.301728074 -4.057769113 2.9881382110000008
2.30196386 -4.107659218 3.140480848
2.302844024 -4.087641012 3.0784696799999987
2.3033351509999997 -4.046120078 2.9661648190000003
2.304031142 -4.204793934 3.4261258489999986
2.3093259930000003 -4.172654892 3.333840786000001
2.3126190460000005 -4.069013878 3.026223302
2.3158238769999997 -4.019395031 2.8782739800000003
2.3193599930000004 -4.190412094 3.3880398489999988
2.3225750570000003 -4.167114023 3.3201688070000017
2.329057935 -4.089007982 3.084816589
2.335566052 -4.125191092 3.197610303000001
2.3385510130000005 -4.113650058999999 3.165384177
2.3420948590000004 -4.050895833999999 2.9808131410000005
2.3514278670000004 -4.011454915 2.8714382180000007
2.357831846 -4.176811056 3.3475132190000005
2.3673460699999995 -4.0909761289999995 3.0897001210000012
2.383550992 -4.091902904 3.0965358830000005
2.3868279009999998 -4.063415029 3.0145053719999995
2.3929819969999997 -4.121734785 3.1888209460000008
2.396205019 -4.09393608 3.096047939
2.3992629680000004 -4.037378015 2.9432159939999996
2.4024421060000005 -4.036588118 2.9339377840000003
2.412104123 -4.054664098 2.9910672389999995
2.416353055 -4.0799341810000005 3.0613802750000003
2.4163821590000003 -4.061925959 3.0105977280000005
2.4164749280000004 -4.135701895 3.228371687
2.416589069 -4.032851005 2.922219854
2.416631815 -4.168962116 3.3265161700000005
2.4167029830000004 -4.093122082 3.101906904
2.4169451360000003 -4.2046600110000005 3.4290557860000015
2.4187338849999995 -4.1466149219999995 3.260597812999998
2.422003064 -4.025657129 2.902199602
2.42837703 -4.112047984 3.161966296
2.4379390030000003 -4.060849799 3.007668701
2.4410340130000003 -4.144905072 3.256691988
2.4504170430000003 -4.07395107 3.046242644999998
2.4536869030000004 -4.049964966999998 2.975931428
2.4628521090000004 -4.047914965 2.9739769240000005
2.469199927 -4.183136137 3.373390617
2.47563392 -4.167364134 3.3274929669999995
2.478759853 -4.1011140390000005 3.1248561839999995
2.481750954 -4.151220148999999 3.2728059600000003
2.490967091 -4.183805979 3.3709499880000005
2.5035390360000003 -4.138386041 3.2366731
2.506519905 -4.162169783000001 3.3118683030000007
2.512809971 -4.104134926 3.139992904
2.5188910800000004 -4.11778394 3.174193088
2.5253500840000007 -4.045897934 2.966652763
2.5284041669999997 -4.187785019 3.387063051
2.531425963 -4.0875880339999995 3.0955590850000005
2.531606952 -4.0411928900000005 2.9471222740000007
2.5319821190000003 -4.071700071 3.0447779039999996
2.532113996 -4.153791063 3.277200184
2.5322320030000003 -4.178736001 3.363625827999998
2.53277588 -4.202675948 3.4222200240000014
2.534666947 -4.081609016 3.0745629460000004
2.538125983 -4.10369996 3.1365750230000002
2.541375153 -4.093218033000001 3.1053247850000005
2.544517002 -4.1149381310000015 3.1766141630000013
2.556702185 -4.144986927 3.2610866660000006
2.5689589900000005 -4.033045864 2.9231961969999998
2.578274945 -4.068757173 3.0389189389999998
2.581403152 -4.099479904 3.130227205
2.5846550500000003 -4.0536729760000005 2.9891140989999987
2.5873280550000004 -4.103408012 3.139992904
2.590413061 -4.161140917 3.3108910510000005
2.596711994 -4.1294268370000005 3.2132349670000018
2.611987867 -4.115735985 3.1785668480000013
2.6180059930000006 -4.030317835 2.9178251760000014
2.62433403 -4.046746947 2.9656768760000007
2.627341047 -4.0217010539999976 2.8968290360000006
2.6306238680000003 -4.0548600939999995 2.9935087780000003
2.633707965 -4.112592998999999 3.1658721210000005
2.6424811780000006 -4.058214993 3.00229768
2.645778096 -4.148519858999999 3.271341219
2.646457034 -4.056103828 2.9925319800000016
2.646510012 -4.121564027 3.1951692189999994
2.646537979 -4.169706993 3.336769813
2.6465550319999998 -4.02840494 2.922707798
2.6466830430000003 -4.0796711100000005 3.0623561619999995
2.646713966 -4.158637987 3.30356689
2.649092977 -4.1944970900000005 3.404640855
2.6583200280000003 -4.18725592 3.3812040860000003
2.6644241020000003 -4.047817877 2.9705590430000006
2.670386976 -4.029238037 2.920755113
2.676319156 -4.1990709389999985 3.4144270180000005
2.685314968 -4.033180924 2.9212430570000008
2.688613932 -4.154309929 3.2879417710000007
2.6943921790000003 -4.1513008660000015 3.27671224
2.6975599500000005 -4.190337970000002 3.3973171489999996
2.7007329490000007 -4.061753155 3.015970114
2.712469978 -4.009340112 2.868019882
2.7154499380000003 -4.03312499 2.926614078
2.718542902 -4.0202069819999995 2.8968290360000006
2.7243700339999997 -4.051834888 2.9837430779999985
2.730442048 -4.128850899 3.2176300999999987
2.7334890830000003 -4.0459711480000005 2.9642121339999994
2.7392568710000003 -4.016637897 2.8934106999999987
2.745357989 -4.075649096999999 3.060403023
2.748360003 -4.085928206 3.0901880639999995
2.7514641089999996 -4.0331831980000015 2.9324730430000012
2.754577991 -4.072909017 3.0413600219999997
2.761562001 -4.0765749630000006 3.059427135
2.761622028 -4.137534072 3.236184247
2.761830075 -4.0423099769999995 2.9603058550000005
2.761913976 -4.120586093000001 3.1927267710000016
2.7619730930000004 -4.084573058999999 3.0799339660000005
2.761990146 -4.172542115 3.3353059820000004
2.763004915 -4.19928899 3.4236843100000005
2.77070788 -4.185001965 3.368508905000001
2.773799025 -4.0751120400000005 3.057473085
2.7831311230000004 -4.035670893 2.9476102180000003
2.7894989500000005 -4.060412787 3.007668701
2.792496872 -4.106017807 3.1478059180000004
2.7953940669999997 -4.14849894 3.2747591000000003
2.798741917 -4.141142947 3.252786163000001
2.804774141 -4.112871077 3.1678252610000004
2.8079830660000002 -4.027926091 2.9261261339999995
2.823434016 -4.069314012 3.042824764
2.8263748670000006 -4.181755978 3.3621610859999995
2.829504893 -4.146330023 3.2708523660000006
2.835725837 -4.164134973 3.32456303
2.838961137 -4.0303601260000015 2.9246609380000006
2.8451150060000003 -4.154829024 3.291848051000001
2.8666670739999995 -4.025956125 2.9124541550000016
2.8729960210000005 -4.205506068 3.4358910930000004
2.87603487 -4.1932760930000015 3.40073503
2.8768941150000003 -4.120614060000001 3.192238827
2.876933905 -4.128930025 3.2137229110000005
2.877295884 -4.199263069 3.422707968
2.877726075 -4.162931939 3.3206572050000016
2.8781899170000003 -4.073269177 3.057473085
2.87849096 -4.082643111 3.0784696799999987
2.8828410730000003 -4.111037991000002 3.160989044
2.888722093 -4.045003899999998 2.9686059030000003
2.891988998 -4.087166938 3.0970242810000004
2.9012360580000003 -4.035598133 2.9388208610000004
2.9042869580000006 -4.0805139839999995 3.067238785
2.913296868 -4.142176133 3.2532741069999997
2.916564909 -4.184339171 3.3743678700000004
2.919772015 -4.0685689080000005 3.0355010579999995
2.9319490120000005 -4.103120157 3.144875981
2.9350378839999998 -4.1255278330000005 3.2078639460000007
2.944226963 -4.043823831 2.9642121339999994
2.9595749139999996 -4.14823496 3.2708523660000006
2.9686071060000003 -4.033270964 2.9422391969999997
2.971772147 -4.138457892 3.256691988
2.9808398100000004 -4.16410496 3.32260989
2.9840710170000007 -4.065655114 3.0301300369999997
2.9902060130000003 -4.07133309 3.049661434999998
2.991721914 -4.149028948 3.2781769810000005
2.9917728450000003 -4.1175170030000015 3.182961981
2.991803996 -4.033361913 2.9324730430000012
2.9918360550000003 -4.0461780580000015 2.971047897
2.992798983 -4.170586929 3.34360603
2.993868776 -4.196644861 3.4222200240000014
2.9939510850000004 -4.080977826000002 3.0789576239999996
2.9998709860000004 -4.186380077 3.3880398489999988
3.0029748639999996 -4.133635978 3.2342311070000003
3.0058279489999995 -4.203125921000002 3.433937953
3.0090930350000007 -4.051343078000001 2.9891140989999987
3.0151489060000003 -4.040389806 2.958841113
3.0181770680000004 -4.164959884999999 3.3206572050000016
3.0242900089999996 -4.117993124 3.1897977430000006
3.0273891130000004 -4.1667229410000015 3.3304229050000016
3.030399085 -4.17250096 3.3421412890000006
3.0364379030000004 -4.073579087 3.0560092539999992
3.0395279110000004 -4.192960043999999 3.4075707930000005
3.0457318019999997 -4.122795029 3.2000522960000004
3.048711079 -4.04960708 2.986184162
3.0516778510000004 -4.179367873 3.36264903
3.0546321169999997 -4.088861099 3.1048368410000005
3.06104701 -4.117417868 3.1878446030000003
3.0668830110000007 -4.078395089 3.0652861000000002
3.073174895 -4.117331012 3.1868678059999995
3.0791589150000003 -4.085246995 3.0936059460000003
3.106585865 -4.15493498 3.2928248480000004
3.1068339300000005 -4.164998993 3.3250518840000005
3.1069169210000003 -4.049331049 2.9832551339999998
3.1070071880000003 -4.026133932 2.915872036000001
3.107120875 -4.086404099 3.0926300580000015
3.107250023 -4.1376709510000005 3.2479030860000004
3.1077350110000013 -4.197623932 3.415384262
3.108504899 -4.082011012 3.0818875610000003
3.1159868569999998 -4.10580203 3.153176939
3.119243075 -4.0246710089999995 2.90659519
3.131300019 -4.166575148 3.32456303
3.1342549669999995 -4.076067919 3.0608909660000005
3.1405079710000003 -4.203660931000002 3.4358910930000004
3.143664827 -4.05325711 2.9915560930000007
3.1464478810000003 -4.035466029 2.9344266380000006
3.1588449760000006 -4.0980870130000016 3.1390161070000007
3.1617430810000005 -4.1405661 3.2557161
3.1649149430000003 -4.144278885 3.2669456310000005
3.1706900069999997 -4.044296996 2.9705590430000006
3.176847969 -4.133440891 3.2337431630000006
3.189096816 -4.092150969 3.1004421630000003
3.1979650710000014 -4.142373039 3.264504548
