# .PCD v0.7 - Point Cloud Data file format
VERSION 0.7
FIELDS x y z
SIZE 4 4 4
TYPE F F F
COUNT 1 1 1
WIDTH 323
HEIGHT 1
VIEWPOINT 0 0 0 1 0 0 0
POINTS 323
DATA ascii
-0.09686101228 -3.136053085 0.2791432142
-0.1261012554 -3.302302361 0.7501454949
-0.08259315789 -3.459014416 1.216055393
-0.09201287478 -3.637259245 1.740540385
-0.09497472644 -3.809909344 2.256233454
-0.1116155237 -3.992703676 2.789227247
-0.09734980762 -4.151140213 3.263173103
-0.06529225409 -4.305009842 3.729141235
-0.1734967232 -4.465072632 4.206225395
0.2411647439 -3.105194092 0.2115541399
0.3102526367 -3.327079773 0.8552979827
0.3941816688 -3.462355614 1.248411536
0.385409236 -3.628293037 1.741639495
0.3775513768 -3.792331934 2.227493286
0.375877589 -3.959420681 2.71854043
0.3742245436 -4.123893261 3.201452017
0.3948091865 -4.281911373 3.696513176
0.330291301 -4.469762325 4.233808517
4.993209362 -3.219353676 0.5536631942
4.904266357 -3.380905867 1.014516592
4.666749954 -3.555860519 1.542145967
4.796318054 -3.732057571 2.055858135
4.846594334 -3.887599468 2.512570381
4.850578785 -4.063758373 3.034307003
4.855276108 -4.227134705 3.513809681
4.834517479 -4.35887146 3.939908028
4.863732338 -4.484781742 4.320861816
5.406483173 -3.24576664 0.6344272494
5.364264011 -3.389618397 1.046185136
5.467831612 -3.535164833 1.475387096
5.168159485 -3.948740005 2.696476698
5.248768806 -4.074286938 3.071537495
5.336455345 -4.228499889 3.524228096
5.349181652 -4.352624416 3.925432682
5.315538883 -4.478173733 4.328344345
5.820144176 -3.305087328 0.8032393456
5.836765289 -3.453004837 1.23344481
5.834225655 -3.632367849 1.76263833
5.947230816 -3.761708498 2.144119978
6.082247734 -3.876155376 2.505593061
5.645386696 -4.316446304 3.80223608
5.758764267 -4.481311321 4.287950516
6.2212286 -3.362040997 0.9708219767
6.292433262 -3.511661053 1.40877831
6.291427135 -3.690643549 1.938107967
6.295393467 -3.858062744 2.435818195
6.409779549 -4.03068924 2.943552732
6.425247669 -4.208484173 3.467937469
6.406918049 -4.330189705 3.855229616
6.418176651 -4.481775284 4.294278145
6.930207253 -3.444989443 1.207861543
6.891846657 -3.619556904 1.725956798
6.902382374 -3.785118818 2.211205721
6.886212826 -3.944890738 2.672977448
6.87113142 -4.109521389 3.166197062
6.893552303 -4.280412674 3.680208921
6.857905388 -4.475557804 4.275374413
7.330548286 -3.430954695 1.16855371
7.332767487 -3.588688374 1.633731008
7.314416885 -3.765671253 2.156095028
7.317321301 -3.935046196 2.648691416
7.314497948 -4.100308895 3.143100739
7.302303791 -4.281636238 3.687292814
7.348759651 -4.479944229 4.284855843
7.835976601 -3.436156034 1.183888316
7.823357582 -3.602965832 1.680372119
7.831451416 -3.776501894 2.191554785
7.818941116 -3.942836761 2.678429842
7.831685066 -4.115954876 3.190967798
7.845726967 -4.275592327 3.673694372
7.860160351 -4.488162041 4.301621437
8.360015869 -3.409259796 1.108693838
8.330516815 -3.552791119 1.536974072
8.347723961 -3.728471994 2.049516201
8.356767654 -3.905681372 2.575403452
8.348798752 -4.08257246 3.094011784
8.339325905 -4.257035255 3.610594749
8.363459587 -4.427821636 4.137293816
8.8438797 -3.387980223 1.037407994
8.812565804 -3.527650118 1.450496674
8.850362778 -3.717605114 2.012101173
8.817941666 -3.889587879 2.515144587
8.824810982 -4.050938129 2.994012833
8.845973969 -4.218431473 3.485791683
8.806893349 -4.38739872 3.992489815
8.824938774 -4.483471394 4.32656908
9.363857269 -3.390500307 1.043357611
9.334600449 -3.520740509 1.429457188
9.355960846 -3.70559454 1.978352666
9.356438637 -3.884615421 2.500600338
9.347989082 -4.045255184 2.978658199
9.351675034 -4.222531796 3.501599789
9.362210274 -4.372868061 3.945915699
9.340326309 -4.485640049 4.304062366
0.8549883366 -3.373236895 0.9856685996
0.8486928344 -3.508101463 1.384563208
0.8453519344 -3.702949047 1.954670429
0.8657460809 -3.852283478 2.397049665
0.8473747969 -4.022828579 2.903675795
0.8546205759 -4.192223072 3.400925398
0.8750007153 -4.310139179 3.78697753
0.8600693941 -4.488745689 4.299328804
9.782891273 -3.453783751 1.23228085
9.811429977 -3.607033014 1.693665981
9.800966263 -3.775199652 2.18837595
9.807477951 -3.935504913 2.655663967
9.808962822 -4.122097492 3.210299015
9.821603775 -4.28027916 3.683137894
9.792838097 -4.489159107 4.28949213
10.38758087 -3.334428549 0.8881713748
10.39352512 -3.493931055 1.352057338
10.388937 -3.674818754 1.891136646
10.36429882 -3.825717211 2.337560654
10.35182095 -3.998150587 2.841930866
10.35248661 -4.160115242 3.327908754
10.36389542 -4.299648762 3.74329114
10.34041023 -4.472883701 4.27960968
10.7443924 -3.246950388 0.6320223212
10.85926628 -3.418177366 1.124947071
10.88054848 -3.573183298 1.587235808
10.82930851 -3.741073608 2.082799673
10.85194111 -3.912984848 2.588277817
10.84517288 -4.090873718 3.11389327
10.81584549 -4.247868538 3.572664261
10.77197647 -4.424283504 4.109830379
11.39208984 -3.237907887 0.6002808809
11.33927917 -3.408029079 1.093704462
11.34629059 -3.57450366 1.586245418
11.36459446 -3.745592594 2.090506792
11.28648949 -3.898294687 2.542380571
11.200737 -4.066730976 3.041780472
11.13468838 -4.181009293 3.379662275
11.79566765 -3.157081604 0.3537767231
11.78734112 -3.300194502 0.7670269012
11.70102596 -3.465641737 1.254758835
11.73633575 -3.632462502 1.752175212
11.87734699 -3.791505814 2.232502222
11.91006374 -3.960989714 2.738981009
11.88430023 -4.138339996 3.256190538
11.87960529 -4.304994583 3.73451972
11.86099339 -4.456942081 4.179332733
12.49451351 -3.134808779 0.2872165143
12.44153976 -3.317754745 0.8237708211
12.47612762 -3.472864151 1.280603647
12.43495178 -3.657959461 1.82756567
12.40990448 -3.811941385 2.285293102
12.38896275 -3.974972725 2.76679039
12.40278816 -4.141572952 3.260659218
12.39432621 -4.300089836 3.73801899
12.31742096 -4.467693806 4.232890129
12.85582924 -3.172576189 0.3976317644
12.84897327 -3.298662424 0.7663695812
12.83601379 -3.468426466 1.266145706
12.84123707 -3.656809807 1.823686242
12.83468151 -3.801577806 2.251186848
12.85005951 -3.977157593 2.768638849
12.8476162 -4.145563126 3.270722151
12.84831429 -4.306699753 3.748190165
12.8201952 -4.497326374 4.296068192
13.32930088 -3.22393918 0.5484625101
13.33296013 -3.399396658 1.063134193
13.32045078 -3.552316189 1.515985847
13.35211563 -3.736536741 2.059646845
13.33825874 -3.901964903 2.546336889
13.34246635 -4.070576668 3.054810286
13.34630013 -4.246079445 3.566915035
13.38187504 -4.381752014 3.973116636
13.31435871 -4.500796795 4.33872509
13.80031204 -3.228499651 0.5632877946
13.87031746 -3.408536673 1.091960669
13.8238821 -3.544881582 1.492231131
13.83012104 -3.732046843 2.050926924
13.87084198 -3.90483737 2.560614824
13.84467506 -4.076538086 3.074373722
13.85047817 -4.244619846 3.565097094
13.86264801 -4.402842999 4.036071777
13.85292339 -4.491627693 4.347551823
14.21468163 -3.22865653 0.563942194
14.2052021 -3.406737804 1.087559938
14.19679165 -3.556108952 1.528331399
14.20345211 -3.725778103 2.032557011
14.20226192 -3.901591539 2.557286263
14.20565224 -4.066921711 3.043906212
14.21395874 -4.247659683 3.576987267
14.22433662 -4.416465759 4.062931538
14.19808865 -4.490203381 4.351023197
1.448474884 -3.143168449 0.3321290612
1.359484911 -3.29318285 0.7604154348
1.317507386 -3.465952635 1.258144498
1.387637496 -3.641671419 1.777762651
1.372147202 -3.790318012 2.214206219
1.316457868 -3.962414742 2.72413373
1.355837345 -4.13473177 3.237246513
1.342231393 -4.286947727 3.694649935
1.340721607 -4.488652706 4.310616493
14.93927479 -3.237158298 0.5930111408
14.85788155 -3.405792236 1.084030867
14.87754822 -3.55139184 1.5173738
14.85672855 -3.730540514 2.050219297
14.85534859 -3.89786768 2.5454216
14.85755157 -4.073513031 3.067663193
14.86262512 -4.240588665 3.554756165
14.8331728 -4.407739162 4.045906067
14.85293388 -4.502467632 4.338848114
15.41404724 -3.269105434 0.6885015368
15.33323193 -3.427504539 1.148377538
15.38047123 -3.586869717 1.625357151
15.3492527 -3.760694981 2.141800165
15.35236645 -3.923406601 2.618530273
15.34925365 -4.092163086 3.125525475
15.35094643 -4.267262936 3.635641098
15.39821911 -4.459086895 4.216610909
15.84701252 -3.319210768 0.8332972527
15.8194685 -3.466109514 1.264170527
15.82786179 -3.628839731 1.749785781
15.85067558 -3.787214279 2.222724915
15.81766319 -3.970846176 2.764818668
15.83805084 -4.132471085 3.248152018
15.83311272 -4.281341076 3.679273844
15.84179592 -4.491740227 4.307700157
16.23589325 -3.369841814 0.9823487401
16.24178314 -3.513578176 1.410915375
16.30374336 -3.697776556 1.96254909
16.28687096 -3.856732607 2.436400652
16.28653336 -4.019961357 2.917621613
16.31363678 -4.197188377 3.439197302
16.2868042 -4.317973137 3.798154593
16.1868515 -4.488842964 4.312960625
17.00894928 -3.491393566 1.340780854
16.99866104 -3.697856665 1.963209033
16.90298843 -3.838958025 2.387768507
16.9045105 -4.005600452 2.880260468
16.7296772 -4.165145397 3.348790884
16.61062241 -4.322780132 3.806475163
16.59836197 -4.468652725 4.220466614
1.744535565 -3.341032267 0.9008324146
1.757347465 -3.483814716 1.313275099
1.758371115 -3.672807217 1.873471379
1.763699651 -3.816749573 2.293216228
1.742769241 -3.991122246 2.809143066
1.766627669 -4.164346695 3.322981596
1.744560957 -4.305728436 3.751735449
1.70841074 -4.488957405 4.304688931
2.432633877 -3.212888241 0.5258521438
2.411803961 -3.394756794 1.063600183
2.43002367 -3.537454844 1.483156443
2.425563574 -3.719428062 2.021903753
2.422955751 -3.885333061 2.507132769
2.432788372 -4.056350231 3.007763386
2.410920143 -4.229771614 3.531542301
2.391165257 -4.362241745 3.963233948
2.413810253 -4.48043108 4.316482544
2.852659225 -3.216634274 0.5386888981
2.84245348 -3.3840065 1.025554299
2.852725267 -3.535558224 1.475242615
2.829165459 -3.719797611 2.013610601
2.849910498 -3.891518354 2.517809153
2.839742661 -4.064117908 3.029987335
2.842076063 -4.230766773 3.521048307
2.826462507 -4.334750175 3.892327785
2.833117008 -4.476370335 4.321024418
3.35037756 -3.210414648 0.5167620182
3.350758791 -3.394351721 1.055253386
3.310747623 -3.524915218 1.443449616
3.342072964 -3.71640873 2.004470587
3.346207619 -3.883927584 2.497140646
3.333937407 -4.054276466 3.004130125
3.341674089 -4.226848602 3.512744904
3.373501301 -4.324861526 3.863574028
3.366172552 -4.486288548 4.315321445
3.823454142 -3.170511007 0.4035627246
3.83795476 -3.314380169 0.8225036263
3.843869925 -3.487599611 1.330600023
3.825406551 -3.670107603 1.873394608
3.846487045 -3.824389935 2.32572937
3.846959829 -3.994100809 2.8246665
3.826066256 -4.160501003 3.31683135
3.878116369 -4.295279026 3.743280172
3.857625246 -4.486302853 4.316323757
4.157900333 -3.131915569 0.2878515422
4.201724052 -3.311619043 0.8148937821
4.221738815 -3.472972155 1.291728377
4.173658371 -3.664879084 1.858273029
4.240458488 -3.81521678 2.302380562
4.264668941 -3.980073214 2.787673473
4.273081779 -4.151825428 3.297145367
4.308372498 -4.289000511 3.722616434
4.305301666 -4.485247612 4.27812767
0 -3.044741631 0.01966358908
0.5 -3.044741631 0.01966358908
1 -3.044741631 0.01966358908
1.5 -3.044741631 0.01966358908
2 -3.044741631 0.01966358908
2.5 -3.044741631 0.01966358908
3 -3.044741631 0.01966358908
3.5 -3.044741631 0.01966358908
4 -3.044741631 0.01966358908
4.5 -3.044741631 0.01966358908
5 -3.044741631 0.01966358908
5.5 -3.044741631 0.01966358908
6 -3.044741631 0.01966358908
6.5 -3.044741631 0.01966358908
7 -3.044741631 0.01966358908
7.5 -3.044741631 0.01966358908
8 -3.044741631 0.01966358908
8.5 -3.044741631 0.01966358908
9 -3.044741631 0.01966358908
9.5 -3.044741631 0.01966358908
10 -3.044741631 0.01966358908
10.5 -3.044741631 0.01966358908
11 -3.044741631 0.01966358908
11.5 -3.044741631 0.01966358908
12 -3.044741631 0.01966358908
12.5 -3.044741631 0.01966358908
13 -3.044741631 0.01966358908
13.5 -3.044741631 0.01966358908
14 -3.044741631 0.01966358908
14.5 -3.044741631 0.01966358908
15 -3.044741631 0.01966358908
15.5 -3.044741631 0.01966358908
16 -3.044741631 0.01966358908
16.5 -3.044741631 0.01966358908
17 -3.044741631 0.01966358908
