# .PCD v0.7 - Point Cloud Data file format
VERSION 0.7
FIELDS x y z
SIZE 4 4 4
TYPE F F F
COUNT 1 1 1
WIDTH 1264
HEIGHT 1
VIEWPOINT 0 0 0 1 0 0 0
POINTS 1264
DATA ascii
-60.84794235 -3.865091801 1.190996647
-60.86014557 -3.934140921 1.394206524
-60.85043716 -3.998962641 1.582196236
-60.85044098 -4.064147949 1.774290085
-60.85411072 -4.132172108 1.982586861
-60.85256195 -4.19635725 2.177692413
-60.85749817 -4.263414383 2.377604485
-60.8576088 -4.336447716 2.589852333
-60.85905457 -4.39343214 2.759467125
-60.85061264 -4.490431309 3.043725967
-60.85768509 -4.537851334 3.178289413
-60.85900879 -4.608773708 3.381795883
-60.84395218 -4.676163197 3.578521729
-60.85470581 -4.747402668 3.785007477
-60.84902191 -4.815168858 3.980783463
-60.85027695 -4.88506937 4.181407928
-60.85405731 -4.962615967 4.394445419
-60.64968491 -3.586834431 0.3793001175
-60.65805817 -3.650367498 0.5673065186
-60.64550018 -3.722405195 0.7828428745
-60.65428162 -3.789023638 0.9695601463
-60.65222931 -3.862866163 1.184267521
-60.65384674 -3.930089474 1.379907131
-60.65874481 -3.998528957 1.580449104
-60.65870285 -4.066717148 1.782494545
-60.65625763 -4.131801605 1.980483055
-60.652771 -4.196207523 2.176366806
-60.64928818 -4.261708736 2.372249603
-60.65256882 -4.333258629 2.579555511
-60.64939499 -4.390244961 2.748789787
-60.65833282 -4.491300583 3.046598434
-60.65817261 -4.537894249 3.177846909
-60.65365219 -4.605082512 3.370079041
-60.66211319 -4.675965309 3.577049255
-60.6578598 -4.747729778 3.784814835
-60.65530014 -4.814451694 3.978916168
-60.6510582 -4.88231802 4.1726017
-60.65427399 -4.956682682 4.379997253
-60.46297836 -3.586801529 0.3775439262
-60.45967484 -3.652721167 0.574691534
-60.43792343 -3.723941088 0.7819802761
-60.44708633 -3.793148756 0.9827728271
-60.45915222 -3.865341187 1.187810898
-60.4549408 -3.931214094 1.381346226
-60.45792389 -4.000192165 1.584449768
-60.45790482 -4.065572739 1.779102325
-60.45970535 -4.129864216 1.975482941
-60.45674515 -4.194957733 2.173688889
-60.4531517 -4.265857697 2.384967804
-60.45427704 -4.334229946 2.581802368
-60.45257568 -4.393318653 2.759571075
-60.45840073 -4.488928795 3.038377762
-60.45485306 -4.538733006 3.179000854
-60.45486069 -4.609605789 3.381374359
-60.44961548 -4.677885056 3.580099106
-60.45010757 -4.748840809 3.78562355
-60.45462036 -4.81335783 3.974327087
-60.4514389 -4.88313818 4.173379898
-60.45830154 -4.957492828 4.380231857
-60.2850647 -3.60148859 0.419287324
-60.2749176 -3.670578003 0.627676487
-60.27923203 -3.74044466 0.8298904896
-60.28210449 -3.81014514 1.027458668
-60.27717972 -3.874936819 1.21419096
-60.26337433 -3.94472909 1.418416977
-60.26485062 -4.010115147 1.619595528
-60.27373505 -4.077958107 1.81699276
-60.27344131 -4.143023014 2.017970085
-60.26008606 -4.207315445 2.213061333
-60.25822067 -4.279284477 2.425452232
-60.25494766 -4.34569788 2.617440224
-60.25322342 -4.399416447 2.778040886
-60.26383591 -4.501958847 3.074005127
-60.25091934 -4.554976463 3.224149704
-60.25807953 -4.624886036 3.424913406
-60.2549324 -4.691914082 3.619213104
-60.25881577 -4.761412144 3.821113586
-60.25521088 -4.830828667 4.022657394
-60.25718307 -4.901690483 4.224891663
-60.24862289 -4.970077515 4.4112854
-60.02978897 -3.590855837 0.386113286
-60.04619217 -3.654057264 0.5780045986
-60.04830551 -3.723221779 0.7795565128
-60.03974915 -3.793482065 0.9788937569
-60.03853607 -3.861529827 1.178244114
-60.04384995 -3.931670427 1.382603645
-60.04587936 -4.002159119 1.586627007
-60.04881668 -4.063060284 1.772904396
-60.04015732 -4.13087225 1.975291252
-60.04157257 -4.200903893 2.185108185
-60.04049683 -4.26372242 2.372081757
-60.04738998 -4.332790375 2.575413704
-60.05175781 -4.394754887 2.754359245
-60.07014084 -4.491577148 3.038265228
-60.04538727 -4.53945303 3.177595139
-60.04956055 -4.610708237 3.381860733
-60.04988861 -4.677591801 3.579713821
-60.05942535 -4.751641273 3.793258667
-60.05215454 -4.817884922 3.986608505
-60.04711151 -4.884688377 4.176071167
-60.05045319 -4.955170631 4.378580093
-59.85401154 -3.58993125 0.3817929029
-59.85276031 -3.654422998 0.5756881237
-59.86345673 -3.723539829 0.7785737514
-59.85691071 -3.792572021 0.9760680199
-59.8531189 -3.860188961 1.176129341
-59.85509872 -3.929890394 1.380273819
-59.85575867 -3.999851942 1.584657669
-59.85457993 -4.064217567 1.77696228
-59.84695053 -4.129278183 1.975419998
-59.85549164 -4.198373318 2.184500694
-59.85521698 -4.26760006 2.390570641
-59.85631561 -4.333024025 2.580292702
-59.84878159 -4.38705349 2.742165565
-59.82757568 -4.488768101 3.035741806
-59.85407639 -4.539940834 3.18170166
-59.85083771 -4.609183788 3.380052567
-59.84752655 -4.677385807 3.578489304
-59.86045837 -4.747161865 3.780387878
-59.86640549 -4.816833019 3.981975555
-59.85057068 -4.88720274 4.183425903
-59.85357285 -4.957766533 4.384397507
-59.64636612 -3.587151766 0.3727812767
-59.65585327 -3.656737328 0.5832533836
-59.65963745 -3.725641012 0.7834091187
-59.66070175 -3.794041872 0.9788856506
-59.65548325 -3.863892317 1.186552525
-59.65321732 -3.930672407 1.382758617
-59.64552689 -3.999423981 1.583852768
-59.65501404 -4.06635952 1.783145905
-59.65351486 -4.131803036 1.983217239
-59.66195679 -4.195226669 2.175133705
-59.65081406 -4.264802456 2.381163597
-59.65023804 -4.334224224 2.584791183
-59.65007401 -4.389750004 2.751794815
-59.64291763 -4.489472866 3.037563324
-59.65216064 -4.539324284 3.179988861
-59.64956665 -4.608299255 3.376773834
-59.6548233 -4.677287102 3.578454971
-59.64932251 -4.749118805 3.784870148
-59.65865707 -4.814483643 3.973825455
-59.64954376 -4.883111 4.173177719
-59.66091156 -4.957575321 4.385116577
-59.45092773 -3.611217737 0.443310976
-59.454216 -3.679521561 0.6451396942
-59.44757843 -3.748996973 0.8466486931
-59.44815826 -3.81678915 1.044681072
-59.45155334 -3.88588953 1.249883652
-59.45384979 -3.953841209 1.450827599
-59.45609665 -4.020003796 1.64424324
-59.46790314 -4.087939739 1.847841263
-59.45098495 -4.154170036 2.047696114
-59.45437622 -4.222062588 2.249400139
-59.4552002 -4.287694454 2.444168091
-59.45489502 -4.353984356 2.641410828
-59.44799042 -4.397369862 2.785685539
-59.44833755 -4.49930048 3.064821243
-59.45232773 -4.564988613 3.252914429
-59.45896149 -4.631927967 3.443698883
-59.45779037 -4.697868347 3.643270493
-59.45766449 -4.771731853 3.849088669
-59.45186234 -4.841769695 4.053771973
-59.45298004 -4.907574654 4.242807388
-59.45362473 -4.97478056 4.425579071
-59.25499725 -3.613832712 0.450564146
-59.26071167 -3.680307627 0.6476387978
-59.25393677 -3.752113581 0.8555152416
-59.25773621 -3.818748713 1.050068855
-59.25569153 -3.889099121 1.260735989
-59.25226593 -3.953750372 1.452609062
-59.26112747 -4.020047665 1.645715714
-59.26098251 -4.088608265 1.851845741
-59.25258636 -4.155593395 2.054608345
-59.2551651 -4.220903873 2.249970436
-59.2549057 -4.290576458 2.455644608
-59.25203705 -4.357791424 2.653436661
-59.26450729 -4.399662971 2.779260635
-59.25112915 -4.500246048 3.066698074
-59.26005173 -4.562574387 3.247095108
-59.25154114 -4.6316185 3.44603157
-59.25389099 -4.701787472 3.648866653
-59.25570679 -4.772712231 3.852958679
-59.25802612 -4.840213776 4.050142288
-59.25127411 -4.909341335 4.249900818
-59.25259399 -4.977577209 4.428133011
-64.66171265 -3.587754965 0.3683724403
-64.66040039 -3.657175303 0.5754897594
-64.64945984 -3.723227024 0.7695198059
-64.64051819 -3.789698362 0.9593687057
-64.65505981 -3.86065793 1.165743351
-64.64432526 -3.932528257 1.376887321
-64.66656494 -3.999597073 1.571805954
-64.66020203 -4.066637516 1.76852417
-64.65342712 -4.135180473 1.96984005
-64.65531921 -4.198182106 2.155078888
-64.64675903 -4.268399715 2.360873222
-64.65565491 -4.339311123 2.564573288
-64.65887451 -4.390612602 2.713189125
-64.66231537 -4.498886108 3.036035538
-64.66200256 -4.539674759 3.159353256
-64.66069031 -4.609056473 3.366243362
-64.64945984 -4.672095299 3.552797318
-64.64883423 -4.742431641 3.759952545
-64.64909363 -4.808758259 3.956640244
-64.65460205 -4.877256393 4.152200699
-64.6529541 -4.949649334 4.360076904
-59.04481888 -3.613837481 0.4500910044
-59.05451965 -3.684137344 0.6580986977
-59.05438232 -3.749134541 0.8473143578
-59.05767441 -3.818754673 1.051493168
-59.05917358 -3.885550737 1.250715256
-59.05596924 -3.952614069 1.448709488
-59.05239105 -4.019801617 1.644430161
-59.04771042 -4.088823318 1.852930069
-59.06008148 -4.153827667 2.051136017
-59.05804443 -4.222139835 2.255904198
-59.05456924 -4.288388729 2.45111084
-59.05393982 -4.357958794 2.653922081
-59.05660629 -4.402226448 2.781963348
-59.05390167 -4.502198219 3.072422028
-59.05592728 -4.56079483 3.242418289
-59.05017853 -4.631678581 3.446338654
-59.05056763 -4.699338436 3.643699646
-59.0598526 -4.77177906 3.849393845
-59.06009293 -4.840759754 4.051631927
-59.05947876 -4.907329559 4.245042801
-59.06095123 -4.974473 4.427453995
-58.86101913 -3.614039898 0.4513530731
-58.85565186 -3.680245876 0.6474373341
-58.8430748 -3.748045444 0.8435196877
-58.86320877 -3.816866159 1.045816422
-58.86055756 -3.883534193 1.244738102
-58.8559494 -3.954476357 1.453667641
-58.85773468 -4.021132946 1.649402618
-58.85372162 -4.08727169 1.848636627
-58.85290527 -4.151341438 2.04278183
-58.86147308 -4.222701073 2.257698059
-58.85757065 -4.289484501 2.454282761
-58.84836578 -4.356102467 2.64599514
-58.86082458 -4.401833534 2.77794075
-58.85663605 -4.499325275 3.064338684
-58.8515358 -4.563626289 3.249488831
-58.85416794 -4.631412983 3.44508934
-58.85320282 -4.701496124 3.64781189
-58.85102844 -4.77241087 3.853013992
-58.85300446 -4.836723804 4.041213989
-58.86059952 -4.906874657 4.244606018
-58.85731125 -4.974020958 4.423196793
-58.66155243 -3.613608837 0.4451867342
-58.65823364 -3.679205418 0.6406369209
-58.65145493 -3.750114679 0.8475403786
-58.65595245 -3.819384575 1.051884174
-58.65209198 -3.888260841 1.258425236
-58.65085602 -3.95563221 1.457355022
-58.65805054 -4.019020081 1.644674301
-58.65295029 -4.089396 1.854621887
-58.6498642 -4.152458668 2.046588898
-58.65581512 -4.223414421 2.259440422
-58.65749741 -4.289964199 2.454626083
-58.65763855 -4.360101223 2.657749176
-58.65753555 -4.398038864 2.770100594
-58.64460754 -4.498488903 3.063817978
-58.65470886 -4.564362526 3.250621796
-58.65708923 -4.632772446 3.447803497
-58.66042328 -4.698524475 3.640073776
-58.65501404 -4.771606922 3.851419449
-58.65452576 -4.838427544 4.047624588
-58.65822601 -4.906657219 4.245843887
-58.65505981 -4.977962971 4.432382584
-58.44921112 -3.603302956 0.4137347937
-58.45845413 -3.671795845 0.6202456951
-58.46185303 -3.742509604 0.8259751797
-58.4547348 -3.810963631 1.027480125
-58.45050812 -3.875487566 1.22110796
-58.45200729 -3.939581633 1.411511421
-58.4516716 -4.011102676 1.621658325
-58.45569611 -4.077446461 1.818704605
-58.46003723 -4.144091129 2.021359444
-58.45518494 -4.210522175 2.219656944
-58.45982742 -4.277895451 2.418014526
-58.45346832 -4.34940958 2.625015259
-58.45482635 -4.396962643 2.769086838
-58.44348907 -4.490990162 3.040260315
-58.45443726 -4.557154655 3.230600357
-58.44920349 -4.627254963 3.431282043
-58.44773865 -4.692214489 3.620801926
-58.44726563 -4.764255524 3.830259323
-58.45605087 -4.829181671 4.020647049
-58.45940781 -4.897392273 4.217607498
-58.45793152 -4.973289013 4.424608231
-58.2490654 -3.595677853 0.3886109591
-58.25162506 -3.659261703 0.580780983
-58.24974823 -3.725511074 0.776268959
-58.25202179 -3.802870512 1.004689693
-58.25321198 -3.865360498 1.193572521
-58.24823761 -3.929199457 1.382683754
-58.25658417 -4.000257492 1.591478348
-58.25946045 -4.067186832 1.789493561
-58.25318527 -4.134447098 1.992267609
-58.25661469 -4.202617168 2.196193695
-58.25511932 -4.268362999 2.391212463
-58.2550354 -4.336671352 2.588672638
-58.25238419 -4.39185524 2.752366066
-58.26085663 -4.490847111 3.038885117
-58.25750732 -4.541993618 3.186151505
-58.25675964 -4.613882542 3.392778397
-58.25486755 -4.679161072 3.584182739
-58.2579422 -4.753314972 3.800546646
-58.25753021 -4.817200184 3.985578537
-58.26438904 -4.888362885 4.1920681
-58.25332642 -4.955965042 4.386642456
-58.07423019 -3.59609437 0.3912283182
-58.07509613 -3.661339521 0.5873839855
-58.07107162 -3.72671771 0.7802050114
-58.067379 -3.796282053 0.9859452248
-58.07509613 -3.866991758 1.198859692
-58.06620407 -3.932750702 1.388403416
-58.0761261 -4.002780914 1.594179153
-58.07884216 -4.069876671 1.790823936
-58.06889343 -4.134382725 1.987416267
-58.08415222 -4.20131731 2.187613487
-58.08100128 -4.27140379 2.392157555
-58.07555771 -4.342154026 2.595093727
-58.05775452 -4.393224716 2.752534866
-58.07131195 -4.497344494 3.047554016
-58.06363297 -4.548123837 3.196834564
-58.05773926 -4.615692139 3.397850037
-58.05791473 -4.679236889 3.586593628
-58.05982208 -4.750200748 3.792409897
-58.05018616 -4.815702915 3.984474182
-58.05046082 -4.888264656 4.194461823
-58.05673981 -4.95455122 4.388244629
-57.84709549 -3.593932629 0.385206461
-57.85020447 -3.664000511 0.5951788425
-57.85676193 -3.728130817 0.7856340408
-57.86196136 -3.796446085 0.9902620316
-57.8642807 -3.862120867 1.187401772
-57.85486603 -3.933328867 1.39885664
-57.84738541 -4.004819393 1.606495857
-57.82997131 -4.071040154 1.801991463
-57.82294464 -4.134484291 1.9945755
-57.8334198 -4.198809624 2.188788414
-57.84713364 -4.265874386 2.387716293
-57.84246826 -4.336781025 2.592987061
-57.83906937 -4.391274929 2.753742218
-57.83302689 -4.496779442 3.058748245
-57.84283447 -4.54245615 3.191343307
-57.84814453 -4.612782955 3.39499855
-57.84294128 -4.679994583 3.591632843
-57.84763336 -4.752684116 3.802736282
-57.85889053 -4.813885212 3.980442047
-57.85826111 -4.884716988 4.188085556
-57.85267639 -4.953785896 4.390903473
-57.62530518 -3.60025382 0.4045876265
-57.62918854 -3.662240505 0.5899641514
-57.64279938 -3.728815794 0.7854199409
-57.64221191 -3.798844099 0.9925560951
-57.65071869 -3.866358995 1.1972785
-57.65471268 -3.929346323 1.38397646
-57.66392136 -4.003004551 1.597600937
-57.66002655 -4.068514824 1.791161537
-57.65461731 -4.131587505 1.984289169
-57.65822601 -4.198397636 2.187114716
-57.65584564 -4.265393257 2.385852814
-57.66143799 -4.338839054 2.600042343
-57.63782501 -4.388849735 2.752573013
-57.66220093 -4.491990566 3.047348022
-57.66287231 -4.542309284 3.192695618
-57.65335846 -4.608410358 3.38463974
-57.65723419 -4.677591801 3.587116241
-57.64595032 -4.750475883 3.791110992
-57.65829086 -4.819285393 3.998209
-57.66446686 -4.88261795 4.185533524
-57.65110016 -4.950984001 4.38653183
-57.45171738 -3.598055363 0.3971062899
-57.45201874 -3.668680906 0.6076693535
-57.45793915 -3.732250214 0.7949748039
-57.46324158 -3.797527313 0.9882693291
-57.43456268 -3.866283178 1.192780972
-57.44622803 -3.936003447 1.401857853
-57.45040131 -4.002150536 1.595868111
-57.472229 -4.069662094 1.795054436
-57.46060562 -4.135188103 1.991183281
-57.45730591 -4.200074673 2.183939934
-57.45589447 -4.271589279 2.396696091
-57.45674896 -4.338755608 2.59526062
-57.46081924 -4.390184402 2.754440308
-57.45133591 -4.495261192 3.0585289
-57.45278168 -4.542619705 3.193439484
-57.45098114 -4.611821175 3.392946243
-57.44220352 -4.679397583 3.591100693
-57.45960236 -4.750659466 3.77961731
-57.45589447 -4.836586475 4.006072998
-57.46961975 -4.899325848 4.193805695
-57.46093369 -4.963178158 4.38725853
-57.25856781 -3.592218876 0.3812531233
-57.25388718 -3.664567232 0.5985593796
-57.24575806 -3.729383469 0.7891843319
-57.25305939 -3.799296141 0.9932069778
-57.2495575 -3.867713451 1.197685242
-57.25002289 -3.929660797 1.381965637
-57.25880051 -4.00310564 1.598781586
-57.24815369 -4.070783138 1.798183441
-57.25157166 -4.135407448 1.993426323
-57.25717545 -4.200531483 2.188476563
-57.25217819 -4.269555092 2.393556595
-57.25074768 -4.337454796 2.593858719
-57.26011276 -4.39148283 2.757029533
-57.26158524 -4.496166706 3.06215477
-57.26101685 -4.541753769 3.194402695
-57.25492096 -4.607811451 3.386445999
-57.25962067 -4.676673889 3.588125229
-57.2518959 -4.751189709 3.791980743
-57.22897339 -4.814186573 3.993448257
-57.24282074 -4.881659508 4.197753906
-57.24898529 -4.955434799 4.398994446
-64.46089172 -3.609727383 0.4369021654
-64.46344757 -3.674342155 0.6298012733
-64.45774841 -3.745410442 0.8339505196
-64.45442963 -3.81967783 1.047711372
-64.45884705 -3.879794121 1.223565102
-64.43379974 -3.94784236 1.425282955
-64.4551239 -4.019128323 1.634929657
-64.46704865 -4.091722488 1.846528053
-64.48164368 -4.160678864 2.04919529
-64.47531128 -4.226308346 2.243393898
-64.46684265 -4.290569305 2.432003975
-64.46764374 -4.361204624 2.637386322
-64.48098755 -4.401824474 2.753988266
-64.46963501 -4.510674477 3.078722
-64.45801544 -4.565775871 3.242485046
-64.4523468 -4.633795738 3.443677902
-64.45727539 -4.699724674 3.636764526
-64.44555664 -4.766335487 3.832460403
-64.45605469 -4.83490324 4.032583237
-64.46038818 -4.906404495 4.235151291
-64.44913483 -4.971455097 4.411481857
-57.05382156 -3.592329502 0.3862688541
-57.05172729 -3.663105488 0.5999755859
-57.0608139 -3.730246305 0.7957296371
-57.05319977 -3.801065683 0.9996151924
-57.05210876 -3.865071297 1.189053059
-57.0530777 -3.934443474 1.395647049
-57.0500946 -3.999075651 1.585543633
-57.05496216 -4.067329407 1.787652016
-57.05191803 -4.139153957 2.00632
-57.05867767 -4.200476646 2.19148159
-57.0589447 -4.267523766 2.390501022
-57.05989075 -4.336447239 2.591773033
-57.06136322 -4.390709877 2.754852295
-57.06723785 -4.493358135 3.0545578
-57.05799866 -4.541073799 3.192867279
-57.04277802 -4.610147476 3.394220352
-57.05691528 -4.675870419 3.587543488
-57.06065369 -4.750450134 3.805030823
-57.05851746 -4.813607693 3.989929199
-57.05300903 -4.879677773 4.188440323
-57.02820587 -4.948657513 4.385848999
-56.85122299 -3.617570639 0.4646502733
-56.85624313 -3.686230659 0.6709654331
-56.8645668 -3.753372192 0.8630459309
-56.85538864 -3.821602345 1.059949398
-56.85783005 -3.888366699 1.258843422
-56.84775925 -3.956275702 1.458409309
-56.85654449 -4.022071838 1.652279854
-56.8556366 -4.093601227 1.867872238
-56.85060883 -4.156122684 2.058042526
-56.85522079 -4.224863052 2.264545441
-56.84750748 -4.293153763 2.465855598
-56.85450745 -4.358431816 2.657219887
-56.84698868 -4.409540653 2.804269791
-56.85564423 -4.50838995 3.100149155
-56.85398865 -4.564306736 3.261287689
-56.85227203 -4.63169384 3.458278656
-56.86516953 -4.699093342 3.656177521
-56.85879517 -4.771496296 3.865688324
-56.85326004 -4.838674068 4.065214157
-56.85554504 -4.904225826 4.261650085
-56.85813904 -4.97444582 4.441257477
-56.66172791 -3.615003109 0.4547753334
-56.66027832 -3.682460546 0.6566493511
-56.65128708 -3.750544786 0.8535888195
-56.65717316 -3.81942296 1.05361557
-56.66672134 -3.887185097 1.254286289
-56.65933228 -3.959685802 1.467401028
-56.65056992 -4.024724483 1.660326004
-56.65717316 -4.090687752 1.858237267
-56.65236282 -4.15683651 2.059161186
-56.65991211 -4.224852562 2.263038635
-56.6521759 -4.292666435 2.463414192
-56.65287399 -4.361255169 2.663064003
-56.65583801 -4.407568932 2.798081398
-56.66904449 -4.507379055 3.095558167
-56.65153503 -4.5625 3.25623703
-56.65300369 -4.630029678 3.45334053
-56.65351868 -4.699244976 3.656896591
-56.65393829 -4.769805431 3.862068176
-56.64532852 -4.836254597 4.058286667
-56.66191101 -4.901773453 4.253606796
-56.6521759 -4.974850178 4.444190979
-56.46216583 -3.608973742 0.4367902279
-56.45596695 -3.676371098 0.6370561123
-56.45092773 -3.741630077 0.8268647194
-56.45168304 -3.810305357 1.025415897
-56.45198059 -3.884378195 1.245075226
-56.4610672 -3.946505547 1.428155422
-56.45026779 -4.012867451 1.626436234
-56.45816803 -4.082057476 1.832650185
-56.46074677 -4.146287441 2.02820015
-56.44933701 -4.216989517 2.239164352
-56.45093918 -4.285036087 2.441322327
-56.46625137 -4.352431297 2.637681961
-56.46641541 -4.400892258 2.778452873
-56.44937134 -4.504056454 3.086662292
-56.45357132 -4.553589344 3.230161667
-56.46041107 -4.623452187 3.434322357
-56.45720673 -4.691959858 3.637044907
-56.45749664 -4.760545731 3.838163376
-56.45801544 -4.824877262 4.030145645
-56.45349884 -4.89347744 4.232845306
-56.45176697 -4.969929218 4.431884766
-56.2510643 -3.619329691 0.4698890448
-56.26173401 -3.684712648 0.6630079746
-56.25974274 -3.751062393 0.8552806377
-56.24710846 -3.820142031 1.05553627
-56.24809265 -3.889668941 1.261373043
-56.25674438 -3.957943201 1.464041233
-56.26237488 -4.024564266 1.660124779
-56.25022888 -4.0932827 1.867160797
-56.25447083 -4.155559063 2.056195259
-56.25419617 -4.224183083 2.261194229
-56.25286865 -4.288047791 2.450714111
-56.2453537 -4.357378006 2.653861046
-56.24786377 -4.407155037 2.797592163
-56.24459839 -4.506036282 3.0958004
-56.26212692 -4.562412262 3.257930756
-56.25597382 -4.630158424 3.457645416
-56.25673676 -4.695431232 3.652328491
-56.24910736 -4.76527071 3.854810715
-56.25164032 -4.831199646 4.051954269
-56.2546463 -4.904066563 4.264533997
-56.26190567 -4.971287251 4.43911171
-56.05360031 -3.615123987 0.4588588476
-56.056633 -3.679113626 0.6495239735
-56.04746246 -3.75238657 0.8595280647
-56.05817032 -3.819683552 1.054550171
-56.04953766 -3.888770342 1.259070873
-56.06223297 -3.954573154 1.447256088
-56.06241989 -4.027826309 1.660238266
-56.06324768 -4.091997147 1.85175705
-56.05882645 -4.158017635 2.04930687
-56.05554962 -4.230893135 2.266695976
-56.06559753 -4.291936874 2.455945015
-56.06282806 -4.358292103 2.655342102
-56.05354309 -4.412307739 2.810118675
-56.05354691 -4.506229401 3.080699921
-56.05943298 -4.567991257 3.263591766
-56.05421448 -4.627574921 3.452375412
-56.04985809 -4.695672989 3.652982712
-56.05391693 -4.767673016 3.861171722
-56.04974365 -4.831736565 4.051847458
-56.04864883 -4.900836468 4.253381729
-56.04959106 -4.977153778 4.4485569
-55.87273026 -3.613436222 0.4503657818
-55.87883759 -3.677091599 0.6406214237
-55.89841461 -3.75452137 0.8664801121
-55.87973404 -3.828424692 1.081160069
-55.84936142 -3.890325069 1.264173508
-55.83615875 -3.954530954 1.453551769
-55.83669281 -4.022747517 1.655614853
-55.85499573 -4.090382099 1.858269691
-55.84938431 -4.155620098 2.062509537
-55.87256241 -4.21954155 2.255606651
-55.84513855 -4.2886796 2.462841034
-55.84976959 -4.356510162 2.660098076
-55.85971832 -4.40959692 2.821944237
-55.85431671 -4.499085426 3.084285736
-55.84658813 -4.560916901 3.255876541
-55.86486816 -4.628410816 3.455663681
-55.86120605 -4.694543839 3.649700165
-55.86052704 -4.766928196 3.858673096
-55.85023499 -4.837296486 4.067518234
-55.85345078 -4.90050602 4.254827499
-55.85290909 -4.972395897 4.441896439
-55.64370728 -3.615439653 0.4582602978
-55.65097046 -3.682579994 0.6570205688
-55.64244461 -3.751292706 0.8551692963
-55.66950607 -3.823334932 1.066298962
-55.68764114 -3.887745142 1.25792551
-55.68486786 -3.957947731 1.465543747
-55.65995407 -4.022595882 1.653424263
-55.63887024 -4.094553947 1.871535301
-55.63199234 -4.157687187 2.065380096
-55.64311218 -4.219416618 2.253229141
-55.64007187 -4.288928509 2.460543633
-55.64027023 -4.357903957 2.66516304
-55.64157867 -4.399888515 2.78806591
-55.65207672 -4.50935936 3.1027565
-55.65196228 -4.562530518 3.259906769
-55.64235306 -4.630615234 3.461112976
-55.65238953 -4.697624207 3.659358978
-55.65200806 -4.767001629 3.860782623
-55.64874268 -4.833474159 4.057577133
-55.6553421 -4.903368473 4.264234543
-55.65563202 -4.977095127 4.450159073
-55.44915009 -3.609729767 0.4417424202
-55.471138 -3.677199364 0.6407279968
-55.47194672 -3.742658377 0.8321957588
-55.4493866 -3.804864168 1.024441242
-55.43201065 -3.875052929 1.239571571
-55.41967773 -3.946843863 1.450947285
-55.44110107 -4.014562607 1.645487785
-55.44855118 -4.083733559 1.842917442
-55.44876099 -4.145944595 2.033276558
-55.4519043 -4.21419096 2.233262062
-55.45634842 -4.281739712 2.434387207
-55.45458221 -4.350286484 2.639482498
-55.46549988 -4.393670559 2.771424294
-55.45623779 -4.505306721 3.09264946
-55.45165253 -4.554993629 3.238164902
-55.45625305 -4.623056889 3.436042786
-55.45394516 -4.688131332 3.628601074
-55.45172119 -4.75952816 3.838243484
-55.45770645 -4.826673508 4.037410736
-55.45853806 -4.893622398 4.235473633
-55.45199966 -4.971817493 4.437456131
-55.25141525 -3.598853111 0.4053866863
-55.24779892 -3.663673162 0.6002328396
-55.24526215 -3.731722832 0.7994627953
-55.24768066 -3.798511744 0.9937939644
-55.24942017 -3.861742735 1.183605671
-55.26169968 -3.930527687 1.389353275
-55.26655579 -4.006608486 1.612225533
-55.26338196 -4.068824768 1.796764374
-55.25000381 -4.133071899 1.9909935
-55.25708771 -4.200563908 2.195429802
-55.25883484 -4.268606186 2.397770882
-55.24908066 -4.335211277 2.59617424
-55.24432755 -4.390314102 2.759210587
-55.25152588 -4.498943806 3.074552536
-55.25721741 -4.540809155 3.196098328
-55.25579834 -4.607458591 3.392068863
-55.25754166 -4.674864769 3.589859009
-55.24534607 -4.748314381 3.805454254
-55.2564621 -4.815167427 4.001882553
-55.25344086 -4.880663872 4.195127487
-55.25434494 -4.953594685 4.404087067
-64.25453186 -3.607983828 0.4341754913
-64.24693298 -3.676002026 0.6348776817
-64.24098969 -3.743026972 0.8298420906
-64.23784637 -3.810757875 1.025754452
-64.25008392 -3.882168531 1.235730171
-64.26441956 -3.949654102 1.431681633
-64.26316833 -4.01993227 1.638388634
-64.25408936 -4.086513519 1.834348679
-64.24146271 -4.153426647 2.034158707
-64.25201416 -4.22300005 2.240589142
-64.26683044 -4.292932987 2.444503784
-64.25817871 -4.358914375 2.637672424
-64.24217224 -4.397952557 2.754217148
-64.26052094 -4.509712696 3.081783295
-64.24685669 -4.559900761 3.230489731
-64.24971771 -4.630877018 3.438165665
-64.25598145 -4.702625751 3.649274826
-64.26000977 -4.766141891 3.83357048
-64.25585938 -4.832378864 4.025772095
-64.24845886 -4.902183056 4.224369049
-64.25294495 -4.972075462 4.411037445
-55.03908157 -3.599883318 0.4083814621
-55.04557037 -3.662518024 0.5988397598
-55.05113983 -3.73137331 0.8000128269
-55.06458282 -3.794127226 0.98102808
-55.06102753 -3.866164684 1.195234776
-55.05453873 -3.93123889 1.388910294
-55.05035019 -4.002735615 1.599898338
-55.05056381 -4.069914341 1.800611496
-55.0561142 -4.138258457 2.00968647
-55.05577469 -4.20056057 2.197319031
-55.0515976 -4.267939568 2.39770031
-55.05569839 -4.337247372 2.60201931
-55.06016159 -4.390000343 2.755807877
-55.05282974 -4.492870331 3.051584244
-55.05311584 -4.540950298 3.195726395
-55.06158447 -4.606930256 3.389823914
-55.06323624 -4.67509222 3.59029007
-55.05327988 -4.746676445 3.79968071
-55.05489731 -4.811793804 3.991868973
-55.05189514 -4.882004261 4.198993683
-55.05673599 -4.951727867 4.398122787
-54.86618805 -3.609481812 0.4395587444
-54.85453796 -3.6745646 0.6346008778
-54.85979462 -3.743874788 0.8363118172
-54.85410309 -3.812552929 1.034918308
-54.853302 -3.881284237 1.239523888
-54.84683609 -3.945812225 1.430698872
-54.84950256 -4.011508942 1.624857903
-54.8677597 -4.078310013 1.824821472
-54.85951233 -4.149231434 2.042139053
-54.84403229 -4.21447897 2.238131523
-54.83998871 -4.283139229 2.441980362
-54.84955215 -4.34953022 2.635437012
-54.8466835 -4.397253513 2.775517464
-54.85531235 -4.501229763 3.077571869
-54.86004257 -4.555534363 3.23941803
-54.85784912 -4.623097897 3.436952591
-54.85509109 -4.691456795 3.638933182
-54.86309052 -4.76353693 3.848491669
-54.85440445 -4.827045918 4.034990311
-54.84674835 -4.896698475 4.237522125
-54.84423065 -4.972309589 4.43321991
-54.64909744 -3.610660076 0.4358143806
-54.65119934 -3.680408478 0.6479678154
-54.64756393 -3.742973566 0.8326833248
-54.65609741 -3.813592196 1.039804935
-54.65504074 -3.880623817 1.23967886
-54.66422272 -3.945995092 1.432474136
-54.65252304 -4.014384747 1.635230064
-54.65161896 -4.080999374 1.834459305
-54.64646149 -4.147037983 2.036466599
-54.6568985 -4.216046333 2.243093491
-54.65068436 -4.285926819 2.449315071
-54.65387726 -4.349473476 2.634594917
-54.67063141 -4.397807598 2.77295208
-54.65943146 -4.499081612 3.071146011
-54.6634407 -4.557802677 3.24618721
-54.65420914 -4.624478817 3.441791534
-54.64931107 -4.688802242 3.630292892
-54.64870071 -4.765109062 3.853517532
-54.65494156 -4.825929642 4.031663895
-54.65108109 -4.895050049 4.232688904
-54.65937042 -4.97329998 4.436880112
-54.45213318 -3.600440025 0.4054945707
-54.45042419 -3.664168835 0.6002519131
-54.44743729 -3.732241869 0.8009054661
-54.45954514 -3.799850941 0.9982390404
-54.4387207 -3.866403818 1.196389675
-54.44869995 -3.935409307 1.401545048
-54.45895004 -4.00389576 1.604447365
-54.45714188 -4.072353363 1.809565544
-54.446064 -4.135534286 2.000616074
-54.45123291 -4.200461388 2.195695877
-54.44921494 -4.268623352 2.398288727
-54.45379257 -4.342139721 2.61027813
-54.45514679 -4.3919034 2.754116058
-54.4484024 -4.495140076 3.05777359
-54.45343018 -4.542680264 3.200107574
-54.45745468 -4.611505032 3.402000427
-54.4531517 -4.680083752 3.603881836
-54.4564209 -4.750158787 3.808921814
-54.45467377 -4.813528061 3.996118546
-54.45859909 -4.884928703 4.202144623
-54.46050262 -4.952167034 4.395467758
-54.24586868 -3.60060811 0.4034155607
-54.25077438 -3.663434029 0.5959322453
-54.25639725 -3.73685813 0.8146574497
-54.26190186 -3.801365614 1.003225803
-54.25774384 -3.869533539 1.204846382
-54.25958252 -3.931957722 1.392254829
-54.25911713 -4.005246639 1.609285355
-54.26750183 -4.071155071 1.806071281
-54.24901581 -4.137176037 2.005123138
-54.2530098 -4.203723431 2.204493523
-54.2579689 -4.269289017 2.399729729
-54.25124359 -4.339596272 2.602558136
-54.24859619 -4.396990299 2.766655922
-54.2491684 -4.495100975 3.056711197
-54.25910568 -4.541429043 3.194246292
-54.25292587 -4.614787579 3.40867424
-54.25177002 -4.680893898 3.603822708
-54.25767517 -4.749969959 3.806951523
-54.25875473 -4.81350565 3.995624542
-54.24634552 -4.88379097 4.198051453
-54.2559967 -4.95734787 4.406986237
-54.05786514 -3.621768475 0.4698925018
-54.05005264 -3.686175108 0.6651139259
-54.05814743 -3.751012564 0.8551259041
-54.05401993 -3.821481466 1.062754154
-54.06036758 -3.88904953 1.265180111
-54.06686401 -3.960936308 1.46359396
-54.06319809 -4.026979446 1.65917778
-54.06781387 -4.092411518 1.861070633
-54.07327271 -4.161558151 2.06278801
-54.05940247 -4.231311798 2.25671196
-54.06874084 -4.294931889 2.460762024
-54.07063675 -4.36619997 2.666591644
-54.04830551 -4.412274837 2.798984528
-54.07566071 -4.515735149 3.099723816
-54.06578064 -4.568213463 3.255754471
-54.05827713 -4.63406992 3.466861725
-54.05516815 -4.697906494 3.654970169
-54.05014038 -4.768629551 3.861036301
-54.05564117 -4.837141991 4.062927246
-54.05358887 -4.906625748 4.260282516
-54.05745697 -4.980309963 4.450769424
-53.86426163 -3.614554167 0.4512114525
-53.86113739 -3.67685771 0.6379287243
-53.87467957 -3.74326396 0.8295199871
-53.86152649 -3.816310883 1.044916153
-53.85762024 -3.88163209 1.241934776
-53.84503555 -3.949435711 1.444177628
-53.83472824 -4.014077187 1.636060715
-53.83842087 -4.080720901 1.83537674
-53.85925293 -4.147150993 2.035508156
-53.85661697 -4.217161655 2.245294571
-53.84720612 -4.286008835 2.449669838
-53.84195328 -4.354628563 2.647697449
-53.84227753 -4.407680511 2.798893929
-53.85205841 -4.508165359 3.098926544
-53.84916306 -4.555601597 3.236852646
-53.85354233 -4.625136375 3.438308716
-53.86472321 -4.693843365 3.64058876
-53.85643768 -4.763188362 3.844552994
-53.87071228 -4.826942444 4.031833649
-53.86522675 -4.898991108 4.238307953
-53.86325455 -4.976102352 4.441057205
-53.63011169 -3.617078543 0.4678024054
-53.66223145 -3.69120717 0.6824157238
-53.6446228 -3.758830547 0.8746078014
-53.64746857 -3.824703693 1.071512222
-53.65617752 -3.889217377 1.265581131
-53.65949249 -3.958038807 1.469985008
-53.66553879 -4.021921635 1.657125473
-53.65065384 -4.092576981 1.866848946
-53.6402626 -4.160210133 2.071297646
-53.64630127 -4.227876663 2.274878502
-53.65791702 -4.292024136 2.465198517
-53.65865326 -4.362515926 2.673438072
-53.65673065 -4.408165455 2.806013107
-53.64936447 -4.510943413 3.107749939
-53.65710449 -4.567315102 3.271373749
-53.65925217 -4.636162758 3.471467972
-53.65002441 -4.701998234 3.664743423
-53.65039444 -4.775330544 3.861934662
-53.65983582 -4.842625141 4.075120926
-53.64968109 -4.911095619 4.273078918
-53.65237427 -4.981909752 4.455320358
-53.45208359 -3.61503315 0.4534413815
-53.45770264 -3.687518835 0.6685183048
-53.46308899 -3.758541346 0.8738486767
-53.45892715 -3.823937416 1.066691875
-53.47298431 -3.886281967 1.252390385
-53.45413208 -3.956293106 1.460249424
-53.44325256 -4.029123306 1.677023888
-53.44208908 -4.095903873 1.876734734
-53.46246338 -4.154740334 2.05395031
-53.46524429 -4.226682663 2.269079208
-53.45023346 -4.29042387 2.457701683
-53.4541893 -4.359113693 2.662071228
-53.45885849 -4.408398151 2.806814194
-53.45505524 -4.513399124 3.114208221
-53.45175552 -4.563988686 3.260381699
-53.45600128 -4.634902954 3.465726852
-53.45688629 -4.699754238 3.657052994
-53.44834137 -4.776686668 3.844717026
-53.44665909 -4.861216545 4.075643539
-53.45108032 -4.923670292 4.26219368
-53.45568848 -4.987738132 4.442520142
-53.24607849 -3.619379759 0.467007637
-53.24536514 -3.686262846 0.6639492512
-53.28364563 -3.752055883 0.8566007614
-53.28920746 -3.816870928 1.058092594
-53.2758522 -3.891880035 1.272934914
-53.23709106 -3.958387613 1.474140644
-53.2534256 -4.02312088 1.666002274
-53.25662231 -4.090118408 1.865684509
-53.25834656 -4.15788126 2.067417145
-53.25170135 -4.222546101 2.260830879
-53.25510025 -4.293192387 2.470135689
-53.25483704 -4.362340927 2.672363281
-53.26019669 -4.407622814 2.801381111
-53.25320053 -4.512645245 3.113092422
-53.25720978 -4.565038681 3.265193939
-53.25630188 -4.632698536 3.463048935
-53.24991989 -4.698002338 3.656448364
-53.25851822 -4.771947384 3.860929489
-53.26122284 -4.839839935 4.077190399
-53.25629425 -4.904648781 4.263134003
-53.24469757 -4.98686552 4.46185112
-64.05506897 -3.606502056 0.4340229034
-64.05741882 -3.673499107 0.6326367855
-64.04821777 -3.740758896 0.8263869286
-64.0479126 -3.814279318 1.036926746
-64.05519867 -3.877558231 1.224271297
-64.04618835 -3.94336009 1.413972855
-64.04223633 -4.018591404 1.630279541
-64.04606628 -4.090701103 1.841833115
-64.04992676 -4.155258179 2.036003113
-64.04802704 -4.217146873 2.221806526
-64.04319 -4.293466568 2.43896389
-64.04784393 -4.358866692 2.632866859
-64.04046631 -4.396460533 2.748689651
-64.05413818 -4.512116432 3.076213837
-64.05800629 -4.559372425 3.22592926
-64.05810547 -4.629146099 3.435897827
-64.05154419 -4.695318699 3.63028717
-64.05793762 -4.764432907 3.830928802
-64.05053711 -4.834540844 4.034786224
-64.05962372 -4.902800083 4.228961945
-64.05126953 -4.973507404 4.416826248
-53.06652832 -3.619104624 0.4659403563
-53.05276871 -3.688006163 0.6681900024
-53.0350647 -3.753290892 0.8607573509
-53.02543259 -3.823252201 1.067962646
-53.05054092 -3.886173248 1.257731915
-53.05700684 -3.961709976 1.486092091
-53.05447388 -4.024183273 1.672656059
-53.05605698 -4.088882446 1.865567207
-53.05168152 -4.15629673 2.066533089
-53.05378723 -4.2243433 2.269656181
-53.05772018 -4.294057846 2.473814964
-53.05575562 -4.358759403 2.660625458
-53.04858398 -4.411056519 2.808638573
-53.06255722 -4.509932518 3.106069565
-53.05401611 -4.565570831 3.267408371
-53.05304337 -4.63465929 3.470205307
-53.0565834 -4.695397377 3.648729324
-53.05706787 -4.769581318 3.866306305
-53.04701233 -4.833634853 4.05519104
-53.05609512 -4.907226086 4.268302917
-53.05136108 -4.980470657 4.458051682
-52.85136414 -3.610394478 0.4363322258
-52.84540176 -3.678552628 0.6408500671
-52.85245514 -3.747633696 0.8420221806
-52.85166931 -3.81657362 1.0429883
-52.83798218 -3.878194332 1.229575634
-52.85251236 -3.949758768 1.449431419
-52.86362076 -4.009097099 1.629317284
-52.85773087 -4.081315994 1.845252991
-52.84925079 -4.148441792 2.044823647
-52.85907745 -4.212361336 2.234441757
-52.86312866 -4.281087399 2.435613632
-52.8532486 -4.353974819 2.643443108
-52.85127258 -4.407022953 2.793963432
-52.86498642 -4.507484436 3.097864151
-52.85921478 -4.555222511 3.236221313
-52.86243439 -4.627028465 3.446537018
-52.84906769 -4.689249039 3.630163193
-52.85865784 -4.760833263 3.84091568
-52.85725403 -4.82684803 4.034938812
-52.84580994 -4.895512581 4.234210968
-52.86320114 -4.971954823 4.432508469
-52.64768219 -3.613997698 0.4461745024
-52.65544128 -3.68143487 0.64854002
-52.65429306 -3.745583773 0.8373274803
-52.65314102 -3.816623926 1.044569016
-52.65617371 -3.881744385 1.239377022
-52.65250397 -3.949052334 1.444163322
-52.65529251 -4.015142441 1.644210815
-52.66545105 -4.078711987 1.833882332
-52.66634369 -4.150207996 2.047354698
-52.66464233 -4.213630676 2.235402107
-52.65837097 -4.282038212 2.436520576
-52.66453552 -4.355901241 2.646512032
-52.67604828 -4.407155037 2.794406891
-52.65962219 -4.510373116 3.105558395
-52.65323639 -4.559423447 3.249391556
-52.65077972 -4.624751091 3.43977356
-52.65587616 -4.688385487 3.626350403
-52.65649414 -4.761876106 3.842914581
-52.65834427 -4.825026512 4.029563904
-52.65057373 -4.897016048 4.236318588
-52.6497879 -4.968148708 4.425834656
-52.44449234 -3.620776176 0.469299078
-52.4619751 -3.688132524 0.6683320999
-52.46593475 -3.757702351 0.8722233772
-52.46736145 -3.825336695 1.069660664
-52.461689 -3.891189098 1.266216278
-52.45431519 -3.965838671 1.492466927
-52.45080566 -4.026083946 1.674099922
-52.43945313 -4.08759594 1.859880447
-52.45838547 -4.15816927 2.069185257
-52.45334244 -4.224171162 2.263559341
-52.4490509 -4.295865536 2.471754074
-52.45204926 -4.364249229 2.666090965
-52.4548378 -4.411102295 2.801214218
-52.4483223 -4.514235973 3.114686966
-52.44144058 -4.566218376 3.26679039
-52.45852661 -4.633308887 3.463602066
-52.4619751 -4.698506832 3.656089783
-52.4518013 -4.77282238 3.875494003
-52.45503235 -4.835885525 4.060602188
-52.45589066 -4.909328461 4.271934509
-52.45096207 -4.975551128 4.450204849
-52.25938797 -3.619860411 0.4653701782
-52.25795746 -3.685371876 0.6615419388
-52.25426483 -3.753768206 0.8611085415
-52.24637222 -3.821211338 1.058171272
-52.24549484 -3.889826775 1.262053967
-52.24701309 -3.955585241 1.461214542
-52.26546097 -4.021342754 1.657743454
-52.26245117 -4.087181568 1.856413841
-52.23925018 -4.150502205 2.043571472
-52.25793839 -4.222006798 2.25326252
-52.26995468 -4.293823242 2.462119102
-52.26591492 -4.359997272 2.651628494
-52.24682617 -4.409965038 2.797869682
-52.25257492 -4.512155056 3.103881836
-52.25444412 -4.560804367 3.24646759
-52.25822067 -4.631561279 3.455501556
-52.2522049 -4.695899963 3.645875931
-52.25033569 -4.767981052 3.858594894
-52.26065445 -4.835716724 4.059360504
-52.25589752 -4.904528141 4.258243561
-52.258564 -4.974678516 4.441505432
-52.05665207 -3.615705013 0.4603950977
-52.05450058 -3.684083462 0.6664655209
-52.05495834 -3.750445604 0.8595805168
-52.05920792 -3.821678638 1.06445837
-52.05656052 -3.890183687 1.266308784
-52.0477066 -3.95932889 1.473549843
-52.05080032 -4.025789738 1.668759346
-52.05264664 -4.088112831 1.856784821
-52.04949188 -4.160339355 2.070631027
-52.05371857 -4.227953911 2.267067909
-52.05725098 -4.29272747 2.456674576
-52.05787659 -4.366046429 2.667682648
-52.05144501 -4.411865711 2.796175003
-52.06634903 -4.515779972 3.109714508
-52.06506348 -4.571401119 3.272209167
-52.05816269 -4.634810925 3.462652206
-52.06331635 -4.702589989 3.66317749
-52.05054855 -4.771482944 3.866241455
-52.05149078 -4.839355946 4.067687988
-52.04920578 -4.90614748 4.261318207
-52.04788589 -4.97844553 4.453098297
-63.85724258 -3.595207691 0.4030458927
-63.84672165 -3.665344954 0.6107432842
-63.85491562 -3.735393524 0.81077075
-63.86029434 -3.803338289 1.006670952
-63.86006927 -3.869131565 1.200423241
-63.85569 -3.940915346 1.408976078
-63.84327698 -4.008782864 1.605652809
-63.85239029 -4.077817917 1.808235168
-63.84581757 -4.145329475 2.011752129
-63.85136032 -4.209555626 2.206160545
-63.86010742 -4.276880264 2.405409813
-63.84646606 -4.346074581 2.607150078
-63.84766388 -4.388689518 2.736907959
-63.84718704 -4.504094124 3.072486877
-63.84764099 -4.553070545 3.216995239
-63.85988235 -4.617857456 3.405763626
-63.86267471 -4.6842103 3.601507187
-63.85095596 -4.755997658 3.80787468
-63.85444641 -4.826635361 4.01307869
-63.85523987 -4.892084599 4.200689316
-63.8562355 -4.96531105 4.398550034
-63.66464996 -3.594251633 0.4017894268
-63.65363693 -3.663065672 0.6056549549
-63.63952637 -3.736274719 0.8151402473
-63.64086914 -3.805739164 1.013395309
-63.64427185 -3.871968985 1.209366322
-63.65222549 -3.94050622 1.410066605
-63.66303635 -4.00848341 1.606218338
-63.66791153 -4.075869083 1.803946495
-63.65541458 -4.143995285 2.00941658
-63.64234924 -4.21078968 2.20950222
-63.64852142 -4.279870033 2.41327858
-63.65178299 -4.34981966 2.616968155
-63.65861511 -4.39155817 2.740031242
-63.64809036 -4.496302605 3.047702789
-63.6577301 -4.553571701 3.216485977
-63.65375137 -4.621352196 3.415397644
-63.65311432 -4.688236237 3.612764359
-63.64725876 -4.756604195 3.810358047
-63.65314865 -4.826905727 4.01618576
-63.65311432 -4.894802094 4.210187912
-63.65795898 -4.963931084 4.396131516
-63.45596695 -3.598038912 0.4126365185
-63.45680618 -3.664617062 0.6098361015
-63.45592499 -3.732740164 0.8058259487
-63.46700287 -3.804147243 1.009570122
-63.4593811 -3.870634079 1.205488205
-63.46128464 -3.941058636 1.412365437
-63.45953369 -4.011918545 1.617163658
-63.4425354 -4.074564457 1.801999092
-63.45345688 -4.14430666 2.010066032
-63.44844055 -4.215816498 2.220643997
-63.44496155 -4.276483059 2.399339676
-63.45322037 -4.35053587 2.614757538
-63.44852066 -4.391746998 2.73488903
-63.45126724 -4.496212959 3.043087006
-63.45333862 -4.553908348 3.213409424
-63.44673538 -4.618457317 3.40404129
-63.45160675 -4.688838959 3.612369537
-63.46123886 -4.755139351 3.806434631
-63.45036316 -4.822658062 4.003505707
-63.4550972 -4.893540382 4.206798553
-63.45782852 -4.962512493 4.397714615
-63.2606926 -3.606424332 0.4377777576
-63.25622559 -3.676841736 0.6472465992
-63.25561142 -3.744155407 0.8406188488
-63.25674438 -3.811580658 1.034671783
-63.25008392 -3.879160881 1.233266354
-63.25106812 -3.949550152 1.437523365
-63.2484169 -4.018632889 1.638293266
-63.26037598 -4.087691307 1.842741966
-63.25414276 -4.14936924 2.028482437
-63.25458908 -4.220691204 2.239450455
-63.26068878 -4.285662651 2.430069923
-63.24881363 -4.35454464 2.629954338
-63.24740982 -4.395396709 2.74957943
-63.25688553 -4.497327328 3.050813675
-63.25728989 -4.558905602 3.233213425
-63.25647736 -4.627869129 3.435880661
-63.24859238 -4.696590424 3.637830734
-63.25514984 -4.763618469 3.829748154
-63.2604866 -4.835234165 4.038618088
-63.26347733 -4.903628826 4.23516655
-63.25813293 -4.97210598 4.418796539
-64.86090088 -3.500113249 0.1141664162
-64.66090393 -3.500215054 0.1146900356
-64.46089935 -3.500316858 0.1152136624
-64.2609024 -3.500418663 0.1157372817
-64.06090546 -3.500520468 0.1162609011
-63.86090469 -3.500622034 0.1167845279
-63.66090393 -3.500723839 0.1173081473
-63.46090698 -3.500825644 0.1178317666
-63.26090622 -3.500927448 0.1183553934
-63.06090927 -3.501029253 0.1188790128
-62.86090851 -3.501130819 0.1194026396
-62.66090775 -3.501232624 0.1199262589
-62.4609108 -3.501334429 0.1204498783
-62.26091003 -3.501436234 0.1209735051
-62.06090927 -3.501538038 0.1214971244
-61.86091232 -3.501639605 0.1220207438
-61.66091156 -3.501741409 0.1225443706
-61.46091461 -3.501843214 0.1230679899
-61.26091385 -3.501945019 0.1235916167
-61.06091309 -3.502046824 0.1241152361
-60.86091614 -3.50214839 0.1246388555
-60.66091537 -3.502250195 0.1251624823
-60.46091843 -3.502351999 0.1256861091
-60.26091766 -3.502453804 0.126209721
-60.0609169 -3.502555609 0.1267333478
-59.86091995 -3.502657175 0.1272569746
-59.66091919 -3.50275898 0.1277805865
-59.46091843 -3.502860785 0.1283042133
-59.26092148 -3.502962589 0.1288278401
-59.06092072 -3.503064394 0.129351452
-58.86092377 -3.50316596 0.1298750788
-58.660923 -3.503267765 0.1303987056
-58.46092224 -3.50336957 0.1309223175
-58.26092529 -3.503471375 0.1314459443
-58.06092453 -3.503573179 0.1319695711
-57.86092758 -3.503674746 0.132493183
-57.66092682 -3.50377655 0.1330168098
-57.46092606 -3.503878355 0.1335404366
-57.26092911 -3.50398016 0.1340640485
-57.06092834 -3.504081964 0.1345876753
-56.86092758 -3.504183531 0.1351113021
-56.66093063 -3.504285336 0.1356349289
-56.46092987 -3.50438714 0.1361585408
-56.26093292 -3.504488945 0.1366821676
-56.06093216 -3.50459075 0.1372057945
-55.8609314 -3.504692316 0.1377294064
-55.66093445 -3.504794121 0.1382530332
-55.46093369 -3.504895926 0.13877666
-55.26093674 -3.50499773 0.1393002719
-55.06093597 -3.505099535 0.1398238987
-54.86093521 -3.505201101 0.1403475255
-54.66093826 -3.505302906 0.1408711374
-54.4609375 -3.505404711 0.1413947642
-54.26094055 -3.505506516 0.141918391
-54.06093979 -3.50560832 0.1424420029
-53.86093903 -3.505709887 0.1429656297
-53.66094208 -3.505811691 0.1434892565
-53.46094131 -3.505913496 0.1440128684
-53.26094055 -3.506015301 0.1445364952
-53.0609436 -3.506117105 0.145060122
-52.86094284 -3.506218672 0.1455837488
-52.66094589 -3.506320477 0.1461073607
-52.46094513 -3.506422281 0.1466309875
-52.26094437 -3.506524086 0.1471546143
-52.06094742 -3.506625891 0.1476782262
-51.86094666 -3.506727457 0.148201853
-64.81393433 -4.978764057 4.467955112
-64.61393738 -4.978865623 4.46847868
-64.4139328 -4.978967667 4.469002247
-64.21393585 -4.979069233 4.469525814
-64.0139389 -4.979170799 4.470049381
-63.81393814 -4.979272842 4.470572948
-63.61393738 -4.979374409 4.471096516
-63.41394043 -4.979476452 4.47162056
-63.21393967 -4.979578018 4.472144127
-63.0139389 -4.979679585 4.472667694
-62.81394196 -4.979781628 4.473191261
-62.61394119 -4.979883194 4.473714828
-62.41394424 -4.979985237 4.474238396
-62.21394348 -4.980086803 4.474761963
-62.01394272 -4.98018837 4.47528553
-61.81394577 -4.980290413 4.475809097
-61.61394501 -4.980391979 4.476333141
-61.41394424 -4.980494022 4.476856709
-61.2139473 -4.980595589 4.477380276
-61.01394653 -4.980697155 4.477903843
-60.81394958 -4.980799198 4.47842741
-60.61394882 -4.980900764 4.478950977
-60.41394806 -4.981002808 4.479474545
-60.21395111 -4.981104374 4.479998112
-60.01395035 -4.98120594 4.480522156
-59.8139534 -4.981307983 4.481045723
-59.61395264 -4.98140955 4.48156929
-59.41395187 -4.981511593 4.482092857
-59.21395493 -4.981613159 4.482616425
-59.01395416 -4.981714725 4.483139992
-58.81395721 -4.981816769 4.483663559
-58.61395645 -4.981918335 4.484187126
-58.41395569 -4.982020378 4.484710693
-58.21395874 -4.982121944 4.485234737
-58.01395798 -4.982223511 4.485758305
-57.81395721 -4.982325554 4.486281872
-57.61396027 -4.98242712 4.486805439
-57.4139595 -4.982529163 4.487329006
-57.21396255 -4.98263073 4.487852573
-57.01396179 -4.982732296 4.488376141
-56.81396103 -4.982834339 4.488899708
-56.61396408 -4.982935905 4.489423275
-56.41396332 -4.983037949 4.489947319
-56.21396637 -4.983139515 4.490470886
-56.01396561 -4.983241081 4.490994453
-55.81396484 -4.983343124 4.491518021
-55.6139679 -4.983444691 4.492041588
-55.41396713 -4.983546734 4.492565155
-55.21396637 -4.9836483 4.493088722
-55.01396942 -4.983749866 4.493612289
-54.81396866 -4.98385191 4.494136333
-54.61397171 -4.983953476 4.494659901
-54.41397095 -4.984055519 4.495183468
-54.21397018 -4.984157085 4.495707035
-54.01397324 -4.984258652 4.496230602
-53.81397247 -4.984360695 4.496754169
-53.61397552 -4.984462261 4.497277737
-53.41397476 -4.984564304 4.497801304
-53.213974 -4.984665871 4.498324871
-53.01397705 -4.984767437 4.498848915
-52.81397629 -4.98486948 4.499372482
-52.61397552 -4.984971046 4.499896049
-52.41397858 -4.98507309 4.500419617
-52.21397781 -4.985174656 4.500943184
-52.01398087 -4.985276222 4.501466751
-51.8139801 -4.985378265 4.501990318
-64.815979 -4.914450645 4.278588772
-64.81801605 -4.850137234 4.089222431
-64.82006073 -4.785823822 3.899855852
-64.82210541 -4.72151041 3.710489511
-64.82415009 -4.657197475 3.521123171
-64.82618713 -4.592884064 3.33175683
-64.82823181 -4.528570652 3.14239049
-64.83027649 -4.46425724 2.953024149
-64.83232117 -4.399943829 2.763657808
-64.83436584 -4.335630417 2.574291229
-64.83640289 -4.271317005 2.384924889
-64.83844757 -4.20700407 2.195558548
-64.84049225 -4.142690659 2.006192207
-64.84253693 -4.078377247 1.816825867
-64.84457397 -4.014063835 1.627459526
-64.84661865 -3.949750423 1.438093185
-64.84866333 -3.88543725 1.248726726
-64.85070801 -3.821123838 1.059360385
-64.85274506 -3.756810427 0.8699940443
-64.85478973 -3.692497015 0.6806277037
-64.85683441 -3.628183842 0.4912613034
-51.81602478 -4.921064854 4.312623978
-51.81806564 -4.856751442 4.123257637
