# .PCD v0.7 - Point Cloud Data file format
VERSION 0.7
FIELDS x y z
SIZE 4 4 4
TYPE F F F
COUNT 1 1 1
WIDTH 1235
HEIGHT 1
VIEWPOINT 0 0 0 1 0 0 0
POINTS 1235
DATA ascii
-59.46602631 0.1668243408 0.1069729999
-59.46277237 0.3380851746 0.1143874973
-59.46649933 0.5506649017 0.1075930744
-59.46886826 0.7638263702 0.112929225
-59.44561005 0.9482498169 0.1031883284
-59.48940277 1.130094528 0.1094519868
-59.47888184 1.345436096 0.09605474025
-59.47873688 1.535133362 0.1034119949
-59.49394989 1.738031387 0.1046657115
-59.46898651 1.955228806 0.09896399826
-59.47872162 2.156007767 0.09955570847
-59.48145294 2.370189667 0.09793800116
-59.48168182 2.560058594 0.09891408682
-59.48062515 2.770709991 0.103080593
-59.4759903 2.984115601 0.1039441973
-59.27861023 -3.504430771 0.1222630739
-59.27765274 -3.270388126 0.1168770567
-59.26248932 -3.056731701 0.1229363158
-59.27727127 -2.878108978 0.1141409501
-59.28595734 -2.655997753 0.1209899932
-59.25809097 -2.468727827 0.1148656234
-59.28139496 -2.281638384 0.1146673188
-59.2654686 -2.050684929 0.1201226637
-59.27342224 -1.856356621 0.1197274998
-59.26217651 -1.691569805 0.1180862486
-59.2951889 -1.485375404 0.1240492314
-59.2804451 -1.304992676 0.1167459935
-59.29447556 -1.054787636 0.1240878627
-59.27309418 -0.8570756912 0.1074752957
-59.29176331 -0.6497812271 0.1190149933
-59.2678833 -0.4444503784 0.1213556156
-59.27522278 -0.2501068115 0.1220442876
-59.2841301 -0.02139854431 0.1309337616
-59.28369904 0.1459827423 0.1052307114
-59.29234314 0.3535270691 0.1060658768
-59.29161835 0.5701007843 0.1126049981
-59.28745651 0.7714481354 0.1146709025
-59.27970886 0.9426994324 0.1141590849
-59.27809906 1.11652565 0.1071128547
-59.27184296 1.338266373 0.1055389941
-59.2721405 1.54492569 0.09862124175
-59.28748703 1.730417252 0.104856424
-59.28105927 1.944658279 0.1067878902
-59.29498672 2.156028748 0.1007338017
-59.26145935 2.347290039 0.09668590873
-59.2600174 2.56445694 0.09394307435
-59.2882309 2.778167725 0.1000542864
-59.27560425 2.991085052 0.09955433756
-64.65678406 -3.512676001 0.1117690951
-64.64480591 -3.247639894 0.1288658828
-64.64842224 -3.026992798 0.1308266521
-64.67614746 -2.836743116 0.1155907661
-64.66555023 -2.65005064 0.1124219894
-64.70948792 -2.483801603 0.1078755409
-64.69618988 -2.206687927 0.1474966556
-64.65115356 -2.0440135 0.09590999782
-64.66827393 -1.840612411 0.1144033223
-64.68972015 -1.674444199 0.09856362641
-64.65475464 -1.430702209 0.09738624841
-64.69589233 -1.255688667 0.1086436361
-64.67573547 -1.047533989 0.09660636634
-64.69603729 -0.8686790466 0.1059099957
-64.67378235 -0.6656293869 0.07959000021
-64.68854523 -0.4679555893 0.07313583046
-64.68338776 -0.2407007217 0.09787333012
-64.65355682 -0.0580368042 0.1115999818
-64.67218018 0.1583747864 0.08233100176
-64.68283081 0.346075058 0.08018443733
-64.65258789 0.5576896667 0.08587117493
-64.66192627 0.7615890503 0.08165817708
-64.67919922 0.9263801575 0.08691625297
-64.64759064 1.151529312 0.08605000377
-64.65426636 1.319734573 0.103408888
-64.66430664 1.564359665 0.1091524959
-64.65400696 1.742404938 0.1115363613
-64.66914368 1.968130112 0.09211856127
-64.67460632 2.15747261 0.0973277837
-64.64600372 2.374399185 0.1201576889
-64.65503693 2.497207642 0.1116962433
-64.68907166 2.736171722 0.1040939987
-64.67822266 3.001976013 0.0791503042
-59.09356689 -3.515108347 0.1270568073
-59.09544373 -3.284931898 0.112282224
-59.07354355 -3.071445942 0.1153249964
-59.07044983 -2.879956722 0.1211512461
-59.08189774 -2.660503626 0.1159129515
-59.07244873 -2.494754553 0.125437215
-59.08892059 -2.287851095 0.1241370514
-59.08010864 -2.040173531 0.1164568737
-59.08562469 -1.865267754 0.1201806664
-59.08565521 -1.662701607 0.1203619987
-59.06392288 -1.460425377 0.125090003
-59.06389618 -1.319847107 0.1222836375
-59.07113647 -1.086108208 0.113191247
-59.08979034 -0.8635063171 0.1030900031
-59.0952301 -0.6574382782 0.1198435575
-59.08129883 -0.4361114502 0.1210126579
-59.09313965 -0.2180786133 0.1192535684
-59.11261368 -0.01522827148 0.1314750016
-59.0798111 0.1484718323 0.1083393693
-59.0745163 0.3627433777 0.1080266684
-59.08802032 0.5308532715 0.1123356
-59.08049774 0.7507648468 0.1113535315
-59.06715012 0.9538955688 0.1066866741
-59.0863266 1.149868011 0.09975299239
-59.09035492 1.341283798 0.1094285026
-59.06204987 1.549362183 0.1063730717
-59.07885742 1.742786407 0.1028214321
-59.06970215 1.937520981 0.1082621664
-59.07250977 2.154800415 0.1004456282
-59.08169937 2.364267349 0.1060774922
-59.07197189 2.556224823 0.1018999964
-59.08159256 2.764850616 0.1055350006
-59.08864594 2.995204926 0.1016637832
-58.88208771 -3.498225927 0.1218909025
-58.87407684 -3.276281357 0.1201422065
-58.8736496 -3.083812475 0.1171444431
-58.87028503 -2.888760805 0.1153295636
-58.86301804 -2.684069633 0.1209724993
-58.85973358 -2.463363647 0.1207126677
-58.88416672 -2.29341507 0.1181559935
-58.87469482 -2.056529045 0.1194262505
-58.8634491 -1.863210201 0.1246400028
-58.88454819 -1.667521 0.1188427731
-58.85588837 -1.474600792 0.1303959936
-58.86688232 -1.281880379 0.1214323118
-58.88384247 -1.076629639 0.1212676913
-58.87997437 -0.8557958603 0.1022166684
-58.88092804 -0.6603965759 0.125466153
-58.87963104 -0.4483070374 0.121436663
-58.87055206 -0.2280025482 0.1196978539
-58.88883209 -0.02487564087 0.1319700032
-58.86992645 0.1460266113 0.1104123443
-58.88674545 0.3517723083 0.1077549979
-58.87417603 0.5378475189 0.1128271446
-58.88868713 0.7604789734 0.1136093736
-58.87343216 0.9349575043 0.1088407561
-58.89744186 1.136547089 0.108010903
-58.89343262 1.347551346 0.1034540981
-58.86585236 1.554193497 0.09991466254
-58.87569809 1.756753922 0.1025563627
-58.851017 1.965827942 0.1148276925
-58.86933136 2.156269073 0.09856473655
-58.87635803 2.357603073 0.09834500402
-58.87471008 2.579906464 0.09833808988
-58.88651276 2.752620697 0.1041527316
-58.8825798 2.957576752 0.1011706218
-58.66260147 -3.504618883 0.1259310693
-58.67984772 -3.283580303 0.1171719953
-58.67851257 -3.070468187 0.1203539968
-58.66260147 -2.877708197 0.1195030734
-58.68759155 -2.66412878 0.1199441627
-58.65692902 -2.470466137 0.118010655
-58.67804337 -2.292988777 0.1209246963
-58.65514374 -2.064731121 0.1210255474
-58.67058945 -1.8795681 0.1267687529
-58.68973923 -1.670175552 0.1202342734
-58.68862152 -1.451706886 0.1287715286
-58.6882515 -1.316652298 0.1200800017
-58.67026138 -1.101342201 0.1152435243
-58.68401337 -0.8860702515 0.1134905815
-58.67472076 -0.6369743347 0.1189553291
-58.67889404 -0.4372701645 0.121749334
-58.652771 -0.2372722626 0.119507499
-58.69380569 -0.03605079651 0.1327354461
-58.6846962 0.1652622223 0.1061842814
-58.67723846 0.3481044769 0.1108663604
-58.68083191 0.5343875885 0.1180014238
-58.70156097 0.7424125671 0.1089140028
-58.65257645 0.9252567291 0.1108590439
-58.67407608 1.113462448 0.1051312536
-58.68347168 1.323884964 0.1138280034
-58.6738205 1.543693542 0.1039994434
-58.68411255 1.736116409 0.1022155434
-58.7056427 1.935148239 0.100527145
-58.67549133 2.14786911 0.1049304754
-58.703228 2.368793488 0.1019612476
-58.67565155 2.55166626 0.1028266624
-58.67263794 2.739498138 0.1036423519
-58.67993164 2.983695984 0.1005455256
-58.47338867 -3.506779909 0.1311061233
-58.47389984 -3.283362865 0.1175886616
-58.47322083 -3.09834218 0.114664115
-58.46324158 -2.895765066 0.1226184145
-58.47888947 -2.671866179 0.1233111173
-58.48553848 -2.473130703 0.1245452315
-58.487854 -2.281390667 0.1262827665
-58.47003937 -2.053340912 0.1179447398
-58.48072433 -1.87492609 0.125558123
-58.48567963 -1.683112621 0.1186094657
-58.48752594 -1.477423668 0.1327261478
-58.47420883 -1.297991753 0.1230689958
-58.47233963 -1.062683105 0.1173662394
-58.47668839 -0.8718347549 0.107412301
-58.4549942 -0.6899290085 0.1179756224
-58.48446655 -0.4325141907 0.1213099957
-58.45873642 -0.2076854706 0.1131369174
-58.47940063 -0.03283309937 0.1331833303
-58.48845673 0.1563053131 0.1063429341
-58.48038864 0.3455429077 0.1148769185
-58.49682617 0.5323486328 0.1197193339
-58.49152374 0.7325115204 0.1119889989
-58.46878052 0.924823761 0.1159906611
-58.46878052 1.133798599 0.1051553339
-58.48018646 1.345502853 0.107902728
-58.47433472 1.569725037 0.1058778614
-58.47097015 1.75696373 0.1000272185
-58.48265457 1.925014496 0.1034649983
-58.48225403 2.11832428 0.1065934747
-58.47881317 2.36574173 0.1051794142
-58.47869873 2.578277588 0.1022083387
-58.47960663 2.753410339 0.1092979982
-58.4623642 2.978103638 0.1025079936
-58.2682991 -3.506230831 0.1286981702
-58.28063965 -3.293428898 0.1242262498
-58.26217651 -3.054238796 0.1218676195
-58.26235199 -2.862140656 0.119166255
-58.27911758 -2.66807127 0.1227166653
-58.29229355 -2.445801258 0.1212477759
-58.27189255 -2.265285492 0.1191558316
-58.26672363 -2.039977551 0.1264705062
-58.26821518 -1.840867043 0.1228013337
-58.2758522 -1.652366638 0.1140171438
-58.27167511 -1.464785576 0.1287462413
-58.27905273 -1.268202782 0.1234474927
-58.26609802 -1.058786392 0.1243799999
-58.27735901 -0.8682575226 0.1193591654
-58.27973557 -0.6554164886 0.1101107076
-58.2948761 -0.4471969604 0.1172086596
-58.27101517 -0.2258625031 0.1176227778
-58.26609802 -0.02415275574 0.1293354481
-58.27462769 0.1730480194 0.1039583236
-58.27922058 0.3446998596 0.1173958406
-58.27616119 0.5274791718 0.1147378907
-58.2663269 0.7325592041 0.110986352
-58.27323914 0.9123783112 0.1210735664
-58.26374435 1.124866486 0.1134245396
-58.27037048 1.330402374 0.1033354476
-58.28622437 1.551534653 0.1006211787
-58.29125977 1.730808258 0.1040846184
-58.28904343 1.944133759 0.1048718765
-58.25338745 2.142196655 0.1091959029
-58.28140259 2.373443604 0.1024879962
-58.27286911 2.561603546 0.09934312105
-58.26754379 2.751319885 0.1098042876
-58.27820206 2.973182678 0.1006816998
-58.07187653 -3.506085157 0.1355132163
-58.07717896 -3.275627375 0.1172170863
-58.07074738 -3.077423811 0.1219086349
-58.08554459 -2.844907045 0.1241873354
-58.06858444 -2.644084454 0.1254221499
-58.09371948 -2.465314865 0.1253183335
-58.05442047 -2.281758785 0.1281152964
-58.1103363 -2.034311295 0.1237849891
-58.07607269 -1.854716778 0.1320257187
-58.03578186 -1.638624668 0.1234963536
-58.06504822 -1.491063118 0.1292716563
-58.09231567 -1.316380501 0.1085464209
-58.09140015 -1.07948494 0.1131666601
-58.10076523 -0.8642234802 0.111000903
-58.10881805 -0.664024353 0.1051722169
-58.10662842 -0.4670801163 0.1189935654
-58.09883881 -0.2293787003 0.1110988185
-58.0884819 -0.0380821228 0.1331844479
-58.06126404 0.1623191833 0.1005352959
-58.08452606 0.3464546204 0.114207983
-58.06665802 0.532579422 0.1166044399
-58.07821655 0.7393798828 0.1029981747
-58.07319641 0.9230766296 0.1178576872
-58.08535004 1.132165909 0.1043115407
-58.0945015 1.345937729 0.1116099954
-58.0823822 1.565681458 0.1101493314
-58.0743866 1.748270035 0.09806039929
-58.05887604 1.95255661 0.1025938392
-58.08501053 2.138641357 0.1027735695
-58.09631348 2.365383148 0.1058906242
-58.09645844 2.553848267 0.1001800001
-58.06251526 2.757545471 0.1051006615
-58.08037567 2.991928101 0.1035902351
-57.86649323 -3.509209394 0.1301894188
-57.84506226 -3.268464327 0.1268100142
-57.87656403 -3.071289301 0.1224276423
-57.87706757 -2.844627857 0.1256069988
-57.88082123 -2.665379524 0.1230158284
-57.87928772 -2.438447714 0.1322042793
-57.87584686 -2.2570014 0.1243686676
-57.87180328 -2.027258396 0.1240726635
-57.90502167 -1.849628448 0.1289863586
-57.88151932 -1.665211201 0.1285707653
-57.85742188 -1.41615963 0.1272071451
-57.86067963 -1.273363113 0.1321166456
-57.87674713 -1.090464592 0.1331945509
-57.88192749 -0.8554115295 0.1282628626
-57.88301086 -0.6817474365 0.1302933395
-57.8886795 -0.4900455475 0.1296309084
-57.86975098 -0.2576370239 0.1273266524
-57.84783936 -0.03413581848 0.1282328516
-57.83963776 0.1617221832 0.1112780049
-57.87005234 0.3705825806 0.1050599962
-57.82420349 0.5487060547 0.1151837558
-57.87296677 0.7365722656 0.09906250983
-57.85509491 0.9510383606 0.1139000058
-57.85633469 1.154945374 0.1016266569
-57.88780212 1.33514595 0.102934286
-57.84942627 1.516878128 0.1139719859
-57.9071312 1.761320114 0.09528199583
-57.88539124 1.956756592 0.1040287465
-57.88768768 2.149002075 0.09740181267
-57.90557861 2.323310852 0.09917356819
-57.89820862 2.54574585 0.104610756
-57.89344025 2.740444183 0.1013159901
-57.87270355 2.983112335 0.1049041897
-57.68121338 -3.474236965 0.1382508278
-57.7122879 -3.268783569 0.1207992285
-57.68913651 -3.053131104 0.128843084
-57.71792603 -2.845758677 0.1356083304
-57.66210938 -2.653083801 0.1258599907
-57.73674774 -2.484287739 0.1377950013
-57.6635437 -2.239563227 0.132502839
-57.74356842 -2.071805477 0.1438999772
-57.68871307 -1.868343353 0.1320549995
-57.72734833 -1.638474941 0.126850009
-57.70100784 -1.429489136 0.1246918216
-57.65737915 -1.211380959 0.1458750069
-57.7262764 -1.122463226 0.1271274984
-57.7285347 -0.8513050079 0.1173474938
-57.63021851 -0.688331604 0.09786332399
-57.70655823 -0.5056171417 0.1175683364
-57.67174149 -0.2857398987 0.1098999903
-57.6712265 -0.1236763 0.1123919934
-57.69132233 0.1496963501 0.09883599728
-57.70585251 0.3733863831 0.1037019938
-57.70683289 0.5426120758 0.1136344373
-57.69400024 0.7438354492 0.1015583202
-57.71478653 0.9071235657 0.1124836355
-57.68359375 1.134048462 0.1111314222
-57.70682526 1.328079224 0.1037428528
-57.72386169 1.530105591 0.114260003
-57.73375702 1.733678818 0.09960667044
-57.71459198 1.963775635 0.1114654467
-57.67543793 2.139293671 0.1071849912
-57.71025085 2.390712738 0.1158774942
-57.67918777 2.587516785 0.09892544895
-57.66017151 2.730178833 0.09704777598
-57.67525482 2.997749329 0.1047649905
-57.46121979 -3.518856764 0.1358131766
-57.44657135 -3.281467199 0.1253121048
-57.45978165 -3.081747055 0.1293535531
-57.46804047 -2.873186111 0.1352090836
-57.45133209 -2.677145958 0.127639994
-57.44128799 -2.454073191 0.1245179996
-57.43987274 -2.262554884 0.113304995
-57.47956848 -2.022427559 0.1393350065
-57.47238922 -1.846374512 0.1110262424
-57.4418335 -1.656597614 0.1181439981
-57.49003601 -1.480903625 0.1143700108
-57.47431183 -1.318378448 0.1149233207
-57.46649933 -1.066366196 0.1247981936
-57.52358246 -0.911646843 0.09771667421
-57.48316193 -0.7076396942 0.09811857343
-57.42334747 -0.4982614517 0.0972199887
-57.46414948 -0.2655754089 0.09515776485
-57.45136261 -0.09991073608 0.09631999582
-57.4982338 0.1452922821 0.0957159996
-57.48505402 0.3699035645 0.09634798765
-57.51076889 0.5717926025 0.0960066542
-57.56339645 0.7471942902 0.09552000463
-57.55205154 0.9393863678 0.09421001375
-57.50222397 -2.817359924 0.09640248865
-57.46427155 -2.643066406 0.09418284893
-57.44854736 -2.4792099 0.09266749769
-57.43095398 -2.250665665 0.09219399095
-57.46383286 -2.029100418 0.1025309488
-64.46977234 -3.500662088 0.1167742088
-64.47209167 -3.272760391 0.1047583297
-64.44525909 -3.04182291 0.1051949859
-64.47940826 -2.88297224 0.09690166265
-64.48504639 -2.654729843 0.1059180126
-64.47982025 -2.426119089 0.1074366719
-64.48603058 -2.248446465 0.1056611091
-64.45619202 -2.055025578 0.1134722233
-64.477211 -1.848779678 0.1014214158
-64.46549988 -1.621865273 0.1153466627
-64.49537659 -1.447630882 0.09966635704
-64.47879028 -1.275930405 0.0837969929
-64.49874878 -1.022100449 0.08508110791
-64.51113129 -0.8297557831 0.08180624247
-64.45475769 -0.6509399414 0.08842666447
-64.4682312 -0.4440135956 0.091018565
-64.47438812 -0.2262496948 0.09144076705
-64.48795319 -0.04110908508 0.1000869945
-64.48358154 0.1448822021 0.07795000076
-64.48564148 0.3287353516 0.08879199624
-64.44716644 0.5569915771 0.08517199755
-64.47188568 0.7533531189 0.09314499795
-64.51287842 0.9413375854 0.0935709998
-64.49266052 1.168914795 0.08178199083
-64.45768738 1.351953506 0.08213083446
-64.48083496 1.551082611 0.08790181577
-64.45755005 1.744804382 0.1070413291
-64.48788452 1.955993652 0.1137299985
-64.45186615 2.169536591 0.09690199047
-64.46601868 2.340578079 0.09377614409
-64.49769592 2.563709259 0.07740916312
-64.5045929 2.7641716 0.08162082732
-64.46340942 2.997390747 0.08679999411
-57.08618164 -3.514891148 0.1390291601
-57.09384537 -3.281205654 0.1242376417
-57.08520889 -3.075298786 0.1280610561
-57.08552551 -2.84498477 0.1234143749
-57.07624817 -2.629473686 0.1258971393
-57.07483673 -2.43191433 0.1288169324
-57.07987595 -2.227053404 0.1248399988
-57.07476807 -2.028196335 0.1387799829
-57.08509064 -1.890893459 0.1201409101
-57.07213211 -1.667868614 0.1266638339
-57.09173584 -1.481920242 0.1264869273
-57.0949707 -1.297596931 0.1350991577
-57.1006279 -1.070487976 0.1344889998
-57.07905579 -0.8681430817 0.1379042864
-57.08267212 -0.6655321121 0.1411528587
-57.04528046 -0.4577655792 0.1327262521
-57.01248932 -0.2910404205 0.1374150068
-56.99723053 -0.08564186096 0.1366350055
-57.12371826 -1.405809402 0.1031719893
-57.0555954 -1.266056061 0.1027766541
-57.10140991 -1.103990555 0.1019360051
-57.06600189 -0.8263320923 0.1013180017
-57.06233978 -0.6616096497 0.1013000086
-57.07260895 -0.4769172668 0.1000599936
-57.04929352 -0.2895622253 0.09771666676
-57.0520401 -0.06981658936 0.09915165603
-57.07914734 0.1285762787 0.09629400074
-57.09497452 0.3283424377 0.09339623898
-57.08520508 0.5311069489 0.09516000003
-57.07378387 0.7585544586 0.09773714095
-57.08494568 0.9837532043 0.1053889245
-56.86244202 -3.512862921 0.1411157548
-56.8716507 -3.269430161 0.1354744434
-56.89265442 -3.052552223 0.1376174986
-56.87614822 -2.890009642 0.1360972673
-56.86814117 -2.699602604 0.1371488869
-56.86751175 -2.477713823 0.1374733299
-56.86772156 -2.28050518 0.1376483291
-56.87495804 -2.074309826 0.1379572749
-56.86915588 -1.871661663 0.1379063576
-56.87537384 -1.657268047 0.1380233318
-56.87007141 -1.427440643 0.1387587488
-56.86142731 -1.237251282 0.1384999901
-56.89386368 -1.095476151 0.1382999867
-56.90676117 -0.890583992 0.1377741694
-56.84012222 -0.635228157 0.1385883391
-56.89019394 -0.4729967117 0.1385622174
-56.87194061 -0.2607116699 0.1381929964
-56.89435577 -0.03657531738 0.1360457093
-56.84236145 0.2150211334 0.1377000064
-56.87906647 0.3323020935 0.1384499967
-56.87822723 0.510017395 0.138376683
-56.84967804 0.7295722961 0.1253599972
-56.8313179 0.9410800934 0.1141162515
-56.8298111 1.117321014 0.1058035716
-56.84697342 1.349687576 0.09794299304
-56.90533066 1.519561768 0.09775272757
-56.87537384 1.750785828 0.09837399423
-56.87445831 1.956960678 0.09444800019
-56.91508484 2.153465271 0.0952128619
-56.83114624 2.346261978 0.09416600317
-56.91365051 2.572368622 0.09745399654
-56.87080002 2.757141113 0.0991050005
-56.85259247 3.008232117 0.109625712
-56.66448212 -3.509068012 0.1400430351
-56.65566254 -3.255608559 0.1364329904
-56.69728851 -3.086624146 0.1401757151
-56.67670059 -2.862500429 0.1366399974
-56.66848755 -2.649338961 0.1377846599
-56.69169617 -2.464534044 0.1380346119
-56.68592834 -2.274568558 0.138487488
-56.66908264 -2.082660675 0.1386733353
-56.67406845 -1.854446411 0.1383650005
-56.70307541 -1.672852039 0.1383018047
-56.67894745 -1.456700325 0.139248997
-56.67672729 -1.257732391 0.1384899914
-56.65028381 -1.053527832 0.1383530051
-56.6895752 -0.8719100952 0.1386760026
-56.66836929 -0.6284484863 0.1345333308
-56.66005707 -0.4415397644 0.133274287
-56.69046402 -0.2448558807 0.1347936392
-56.66389465 -0.04745864868 0.1296074986
-56.66945648 0.173078537 0.1067468822
-56.6722908 0.3513736725 0.1177425012
-56.69097519 0.5495452881 0.1281931102
-56.69344711 0.7432727814 0.1173600033
-56.66572189 0.9265575409 0.1172799915
-56.66654205 1.119245529 0.1178999916
-56.67494583 1.330938339 0.1161849946
-56.65863419 1.537258148 0.1095656157
-56.66771698 1.737586975 0.109803997
-56.67210388 1.955280304 0.111850664
-56.68588257 2.122371674 0.1036675051
-56.62944031 2.376598358 0.09791498631
-56.67495728 2.53812027 0.09835166484
-56.69553375 2.727214813 0.09585999697
-56.69936752 2.993587494 0.1111319959
-56.50192261 -3.512389421 0.1434087008
-56.47121811 -3.224211216 0.1367233396
-56.45365143 -3.039926529 0.1427638382
-56.46395111 -2.865782499 0.1375700086
-56.47348022 -2.65760994 0.1392624974
-56.47032166 -2.452785492 0.1386169195
-56.4751358 -2.255304098 0.1390066743
-56.46241379 -2.053450108 0.1393036246
-56.4810257 -1.838868618 0.1389742941
-56.47885895 -1.660758018 0.1393016577
-56.46994781 -1.473263741 0.1360218227
-56.48423767 -1.270265579 0.1389545351
-56.46002579 -1.070457458 0.1245092824
-56.46865845 -0.8232584 0.1237760037
-56.47485352 -0.6741380692 0.1268568784
-56.47177887 -0.4985847473 0.1209999993
-56.49674225 -0.2862358093 0.1235824972
-56.48311996 -0.06520462036 0.1209988818
-56.48186874 0.1320209503 0.1168140098
-56.46670151 0.3172721863 0.1132784486
-56.49000549 0.5536556244 0.1233562529
-56.49855042 0.7582702637 0.1175487563
-56.49502563 0.9534435272 0.1239793375
-56.50622559 1.153181076 0.1158772707
-56.49391174 1.320661545 0.1087271348
-56.47197342 1.520799637 0.1105568781
-56.46727371 1.733348846 0.1239761487
-56.48311615 1.942966461 0.1119493693
-56.49160385 2.138498306 0.112119168
-56.47059631 2.323860168 0.1124549955
-56.4770546 2.535758972 0.1274511069
-56.49084473 2.707695007 0.1389640123
-56.47171783 2.990745544 0.1212109923
-56.2764473 -3.524095535 0.1462184638
-56.26847458 -3.269182205 0.1382358223
-56.26990128 -3.084428072 0.1378500015
-56.27695847 -2.894907951 0.1382620037
-56.2665329 -2.675946474 0.1404073387
-56.26862335 -2.477162361 0.139397487
-56.26070404 -2.292894363 0.1384929866
-56.24977875 -2.082481861 0.1271218657
-56.24120712 -1.859895229 0.1265887469
-56.2557373 -1.658689022 0.1282457858
-56.25846481 -1.428104401 0.1269628555
-56.26382065 -1.280229568 0.1277241707
-56.28076172 -1.090686798 0.126733005
-56.2716217 -0.8776340485 0.1231588274
-56.29179764 -0.6644668579 0.1232283339
-56.27052689 -0.4737052917 0.1273381263
-56.26726913 -0.2907619476 0.1135018095
-56.29124451 -0.08457374573 0.1375236213
-56.27523804 0.09132766724 0.1132435724
-56.28986359 0.3392829895 0.1149464697
-56.29288483 0.5614624023 0.1145679951
-56.33164597 0.7414455414 0.1211314499
-56.27635956 0.9308509827 0.132273078
-56.26987457 1.160844803 0.1281937659
-56.28762817 1.308473587 0.1195381731
-56.2911911 1.529153824 0.1220136359
-56.30725098 1.715314865 0.1280176938
-56.28030014 1.943849564 0.1124590859
-56.26991272 2.166484833 0.1145018116
-56.2833786 2.323123932 0.111307852
-56.26818466 2.519565582 0.1060109064
-56.30312729 2.714424133 0.1166141108
-56.28403854 2.971977234 0.1134431288
-56.07024002 -3.515213013 0.1405205876
-56.06717682 -3.241000414 0.1237510517
-56.03957367 -3.060896873 0.1343736351
-56.0790329 -2.844259739 0.1322684884
-56.07296753 -2.643398285 0.1387130618
-56.07236099 -2.444543362 0.1305633336
-56.0802536 -2.283809185 0.1225958318
-56.07120895 -2.047867298 0.1224450022
-56.07489014 -1.855168819 0.1280946732
-56.09101486 -1.648395061 0.1334939897
-56.07144165 -1.456025124 0.126098007
-56.07806396 -1.257136345 0.1270014346
-56.08204651 -1.068645477 0.119286418
-56.07994843 -0.870882988 0.1284642816
-56.08110809 -0.6652021408 0.1247684583
-56.07738113 -0.4655723572 0.1182699949
-56.06486893 -0.2429466248 0.1209536865
-56.061409 -0.04058074951 0.1364099979
-56.08752441 0.1402950287 0.1166009977
-56.06703186 0.3260879517 0.1324533373
-56.08062363 0.5199832916 0.1258133352
-56.07213974 0.7421989441 0.126273334
-56.09403992 0.9156150818 0.1316800117
-56.07753754 1.106676102 0.1321833134
-56.06194687 1.296096802 0.1316099912
-56.08631897 1.530204773 0.1394469887
-56.07685852 1.786727905 0.1105347052
-56.06944656 1.951221466 0.1097999886
-56.07969666 2.121404648 0.1160216704
-56.07848358 2.321548462 0.1156913266
-56.09666061 2.504528046 0.1155899987
-56.0665741 2.719989777 0.1129886582
-56.06217957 2.958656311 0.1143772453
-55.87628937 -3.511101007 0.1365711987
-55.87169266 -3.235780001 0.1398006678
-55.87416077 -3.069403172 0.1281276345
-55.85839081 -2.854112864 0.1349225044
-55.85815048 -2.668314934 0.1387600005
-55.87569046 -2.490196705 0.1298023015
-55.89699936 -2.284977913 0.1292876899
-55.87791824 -2.051516533 0.130760774
-55.87827301 -1.836750507 0.1334661543
-55.8785553 -1.651860237 0.1359238327
-55.89330673 -1.496617317 0.1182688773
-55.87852859 -1.277210236 0.1199931204
-55.87693024 -1.076483727 0.1330438405
-55.87514496 -0.8647680283 0.1203237399
-55.90821075 -0.6451940536 0.1364563704
-55.84711838 -0.449754715 0.1301250011
-55.89821243 -0.270368576 0.1323018074
-55.8671875 -0.06684684753 0.1370045543
-55.91450882 0.1709251404 0.1235837638
-55.88576126 0.3275966644 0.1291925013
-55.84841919 0.5393676758 0.1397940069
-55.89268875 0.771730423 0.1341537535
-55.8515625 0.9285182953 0.1393824816
-55.87257004 1.12147522 0.1298599988
-55.87771988 1.358066559 0.1246500015
-55.85702133 1.527662277 0.1143533364
-55.91407013 1.709947586 0.1198424995
-55.88139725 1.96024704 0.1216399968
-55.86421967 2.143102646 0.1205339953
-55.88598633 2.341688156 0.1172713265
-55.86363983 2.547454834 0.1102288812
-55.89441681 2.732017517 0.1185159981
-55.87414169 2.970291138 0.1101112887
-55.65612793 -3.506721973 0.1377319992
-55.66578674 -3.238512039 0.1376350075
-55.67176437 -3.063006401 0.1295804977
-55.67132187 -2.81808567 0.1340985596
-55.67247009 -2.659045696 0.1398249865
-55.67324066 -2.481474161 0.1322061121
-55.6710968 -2.279490471 0.135043323
-55.69414902 -2.071854115 0.1357130706
-55.66350555 -1.901601315 0.1311964244
-55.71022034 -1.678421974 0.1213507131
-55.68458557 -1.449860573 0.1310237348
-55.66905975 -1.250397682 0.1342528611
-55.69680786 -1.064463615 0.128429994
-55.65657425 -0.8202486038 0.1344556957
-55.69350052 -0.6787214279 0.1335916519
-55.69314575 -0.4497699738 0.1340684593
-55.6711731 -0.2505283356 0.1390125006
-55.64793015 -0.06316184998 0.1367174983
-55.70646667 0.1147270203 0.1375749856
-55.70092773 0.2826957703 0.1391366571
-55.68772507 0.5470409393 0.1294233203
-55.67148972 0.7598266602 0.1284285784
-55.66883087 0.9216041565 0.1230579913
-55.68801117 1.135091782 0.1244872734
-55.70626831 1.360450745 0.1305649877
-55.68287659 1.567754745 0.1188569963
-55.64416504 1.73756218 0.1214329973
-55.67565918 1.918836594 0.118964009
-55.70013428 2.130039215 0.1196814254
-55.6710434 2.356327057 0.1122535244
-55.67121124 2.565540314 0.1084262431
-55.68780518 2.759052277 0.1138746142
-55.69326782 2.982818604 0.1147482693
-55.46463394 -3.503536701 0.1360228509
-55.49055481 -3.262690067 0.1354762465
-55.47115707 -3.053663731 0.1329869926
-55.4728508 -2.880120277 0.1398222297
-55.46827698 -2.684936047 0.1285971403
-55.50290298 -2.445222139 0.1349049956
-55.49773407 -2.259350061 0.1312466562
-55.46772385 -2.0424366 0.13892214
-55.48377609 -1.851068497 0.138654381
-55.45746613 -1.654531956 0.1351453811
-55.46375656 -1.468951225 0.1314037442
-55.46805573 -1.278301239 0.1400644481
-55.4945755 -1.067998886 0.1347199976
-55.49643707 -0.8566236496 0.140491426
-55.4693718 -0.6394252777 0.1405522227
-55.47805786 -0.4523429871 0.1406183243
-55.47303772 -0.2177772522 0.1395499855
-55.46735382 -0.05234336853 0.136206001
-55.44386673 0.176071167 0.1140899882
-55.50125504 0.3254318237 0.1282578558
-55.49089432 0.524471283 0.1287014186
-55.47838974 0.7074623108 0.1313974857
-55.49332428 0.9313812256 0.1403077692
-55.49085999 1.161931992 0.1265799999
-55.45388794 1.356451035 0.1222655475
-55.46408844 1.546028137 0.1164414287
-55.47434998 1.752674103 0.1166923046
-55.48746109 1.936826706 0.1156530008
-55.48308182 2.141805649 0.1059210002
-55.49860382 2.341016769 0.1142438501
-55.50638962 2.56262207 0.119028993
-55.45470047 2.737442017 0.1111022979
-55.48121643 2.976158142 0.1121506393
-55.28911972 -3.469355583 0.1315852851
-55.28527832 -3.258594513 0.1326076388
-55.28456497 -3.051367998 0.133153528
-55.26501846 -2.859297752 0.1403738558
-55.29307175 -2.683206081 0.1351031214
-55.28649139 -2.47475338 0.135669291
-55.27011871 -2.259480715 0.1422560066
-55.24256897 -2.110199451 0.1448524892
-55.27628326 -1.885961533 0.1345700026
-55.32156372 -1.652574539 0.1410450041
-55.27639771 -1.437665939 0.1414418072
-55.26137543 -1.239675522 0.1400912404
-55.30078888 -1.065786362 0.1401144415
-55.24738693 -0.8879070282 0.1407049894
-55.26199341 -0.6596059799 0.1406342983
-55.24762344 -0.4732265472 0.1275566667
-55.29925156 -0.2935113907 0.1304883212
-55.27064514 -0.07761001587 0.1370844543
-55.26291275 0.1633358002 0.1344174892
-55.28336716 0.3340511322 0.1327033341
-55.28366089 0.5178966522 0.133923322
-55.28016281 0.7341461182 0.1295409054
-55.27685547 0.9434089661 0.1240922138
-55.29304504 1.146482468 0.1168974936
-55.28399277 1.34046936 0.1148390919
-55.27296066 1.51309967 0.1146907136
-55.29676437 1.714506149 0.1212847084
-55.27091217 1.927251816 0.1102149934
-55.27717209 2.139354706 0.1179699972
-55.27412033 2.334407806 0.1191472709
-55.27692032 2.544090271 0.1143133342
-55.2718544 2.746879578 0.1171236858
-55.27352142 2.981483459 0.1118769348
-64.28294373 -3.529410601 0.1196263656
-64.36713409 -3.241226912 0.1143299788
-64.25132751 -3.106816769 0.1238189936
-64.26316071 -2.919960737 0.1178599969
-64.28277588 -2.700799704 0.1220833287
-64.27325439 -2.48627758 0.1089554578
-64.26844788 -2.303528309 0.1217546165
-64.29124451 -2.10500288 0.1111079976
-64.29226685 -1.925811291 0.1037149951
-64.28975677 -1.69643116 0.1079335585
-64.25741577 -1.493077278 0.1011699885
-64.28735352 -1.320684433 0.09032599628
-64.29277039 -1.110575676 0.0984423086
-64.29410553 -0.9212007523 0.08423545212
-64.27073669 -0.6974992752 0.08983000368
-64.2559967 -0.5072841644 0.1002469212
-64.26558685 -0.2880010605 0.09103399515
-64.2684021 -0.1169128418 0.1042772755
-64.27568817 0.09210395813 0.0870192349
-64.27049255 0.3005657196 0.08979599923
-64.30343628 0.485212326 0.09448666871
-64.27696991 0.7015666962 0.08675900102
-64.28128052 0.9151248932 0.09868583828
-64.28355408 1.102436066 0.09838426858
-64.27885437 1.286302567 0.1007810012
-64.29618073 1.50851059 0.09059777111
-64.3087616 1.703241348 0.1069036275
-64.2987442 1.906681061 0.08219332248
-64.2861557 2.085784912 0.0912957117
-64.27064514 2.278697968 0.07851999253
-64.2640686 2.493362427 0.07414200902
-64.27838135 2.677631378 0.07535666227
-64.2974472 2.886177063 0.07289666682
-64.27386475 3.023551941 0.08718200028
-55.08145905 -3.481003284 0.1353985667
-55.10217667 -3.262123823 0.1349899918
-55.07640076 -3.056280375 0.1418799907
-55.06185532 -2.82868576 0.1430889964
-55.09413147 -2.66809082 0.1352415383
-55.08900833 -2.471900702 0.1376511157
-55.169487 -2.347192526 0.1523700207
-55.07505798 -2.054507732 0.1507549882
-55.14864731 -1.936170101 0.1528199762
-55.01629639 -1.725952148 0.1516899914
-55.16388702 -1.484275818 0.1461950094
-55.07932663 -1.264274597 0.1163279861
-55.02838135 -1.016740799 0.1003700048
-55.14230728 -0.8429393768 0.1247320175
-55.15750504 -0.6561756134 0.1012966856
-55.15883255 -0.5454216003 0.1395299882
-55.02965164 -1.886861801 0.09603668004
-55.06976318 -1.664628983 0.104309991
-55.0838089 -1.426567078 0.1137788966
-55.08638382 -1.221405029 0.1147372797
-55.118927 -1.06055069 0.1087933332
-55.11872101 -0.8627052307 0.1057042778
-55.1339035 -0.6926784515 0.1136783287
-55.13558578 -0.5137939453 0.1207849979
-55.09735107 -0.2613048553 0.1125287414
-55.06296921 -0.04831886292 0.1058039963
-55.08448029 0.138502121 0.1059099957
-55.07371902 0.3369636536 0.1008000001
-55.08645248 0.5377082825 0.1134262532
-55.06946564 0.7495212555 0.1062271446
-55.10713577 0.9969100952 0.1167516634
-54.87990952 -3.524687767 0.147533074
-54.88422775 -3.281104326 0.1344992369
-54.87179565 -3.056992531 0.1368666589
-54.87794113 -2.881575346 0.1357809007
-54.88145065 -2.65379858 0.151154995
-54.96918106 -2.558548212 0.1533700079
-54.83578873 -2.287100792 0.1533239931
-54.87589264 -2.075126648 0.1297300011
-54.83481979 -1.842725754 0.1406487525
-54.9312973 -1.576043129 0.1039750129
-54.87509155 -1.457056999 0.1400174946
-54.93977356 -1.234002113 0.1011699885
-54.81589508 -2.574406624 0.1025599688
-54.83290482 -2.551525116 0.1011900157
-54.89837646 -2.351712227 0.1013200134
-54.87269211 -2.899781227 0.09653666615
-54.85336685 -2.683979034 0.09975248575
-54.90280914 -2.468673706 0.1007124931
-54.89155579 -2.304000854 0.1006400138
-54.93518066 -2.063018799 0.09879501164
-54.79818726 -1.940849304 0.1004199833
-54.86536789 -1.666931152 0.09963665903
-54.89006042 -1.473421097 0.1004500017
-54.92978668 -1.342790604 0.1011566743
-54.86516571 -1.078638077 0.1044100076
-54.86609268 -0.8690547943 0.1031270027
-54.87365341 -0.6596698761 0.1021737382
-54.89517975 -0.468454361 0.1043007672
-54.82888794 -0.2576580048 0.1056279987
-54.84529495 0.02320098877 0.1100720018
-54.67598343 -3.513048887 0.1471612006
-54.66832733 -3.241406679 0.1387325078
-54.67734146 -3.057096958 0.1419864148
-54.67281342 -2.847505331 0.1445100009
-54.65936661 -2.670461655 0.1421011239
-54.64134598 -2.456415176 0.1494107544
-54.69029617 -2.310362577 0.12524198
-54.69353104 -2.021523476 0.1169875115
-54.75962067 -1.844791412 0.1287299842
-54.67904663 -1.659937859 0.1429599971
-54.74943924 -1.527914047 0.1533599943
-54.74748611 -1.172930717 0.1514900178
-54.6088829 -1.158789635 0.1022299975
-54.68059921 -0.8830251694 0.1020266637
-54.67626953 -0.7256689072 0.1019550115
-54.73517227 -0.5612659454 0.1025100201
-54.65480423 -0.1872558594 0.09848998487
-54.68336105 0.03479003906 0.09300000966
-54.67357254 0.1346035004 0.098231107
-54.73558807 0.3490104675 0.1000949889
-54.59418869 0.5569820404 0.1016399711
-54.63934708 0.7447891235 0.1007950008
-54.63885498 0.937953949 0.1006485671
-54.67664337 1.115688324 0.1001666635
-54.68976974 1.279550552 0.1005650014
-54.6734848 1.523790359 0.1009077728
-54.68984985 1.750665665 0.1016442701
-54.6949234 1.962017059 0.1001449823
-54.73797226 2.147525787 0.102046676
-54.71129608 2.363988876 0.1024100035
-54.70389938 2.544742584 0.1060209051
-54.65199661 2.748821259 0.1046255529
-54.66663361 2.984336853 0.1118539348
-54.47789383 -3.511325836 0.146802634
-54.46219635 -3.278909683 0.1382999867
-54.45529175 -3.081336021 0.1361833364
-54.46347046 -2.865436316 0.1405399889
-54.47835541 -2.645619869 0.1440880001
-54.47436142 -2.46475935 0.1409616619
-54.44332886 -2.259931326 0.1422635615
-54.49223328 -2.084106445 0.1491487324
-54.43934631 -1.875689983 0.1492020041
-54.55852127 -1.759922981 0.1526899785
-54.44303131 -1.431401253 0.1331177801
-54.50345612 -1.356361389 0.129979983
-54.51545715 -1.069731712 0.127279982
-54.51275635 -0.952466011 0.1520100087
-54.43120956 -0.642074585 0.1071500033
-54.44444656 -0.4153900146 0.1018266752
-54.50519562 -0.2069416046 0.1015425026
-54.37845612 0.02505874634 0.09671001136
-54.42199707 0.1529884338 0.0981874913
-54.46921921 0.3457736969 0.1004483253
-54.48364258 0.5529155731 0.101001665
-54.47904587 0.7718467712 0.1009470001
-54.45788574 0.91639328 0.1007674932
-54.45962143 1.144496918 0.1007214189
-54.48186111 1.362667084 0.1009140015
-54.48929596 1.52214241 0.1011324972
-54.55044937 1.694862366 0.1019200161
-54.37779617 1.213924408 0.09786997736
-54.41908264 1.351587296 0.09993748367
-54.48279572 1.548522949 0.1027027294
-54.46809387 1.731864929 0.1060199961
-54.46921539 1.971401215 0.1133393869
-54.27826691 -3.516303062 0.1426119953
-54.27894211 -3.270212173 0.1332314312
-54.29181671 -3.052108765 0.139006421
-54.24526596 -2.843562603 0.1416324973
-54.27153778 -2.661063194 0.1424599886
-54.27012253 -2.447198391 0.1355371326
-54.3021965 -2.289362431 0.1309970021
-54.28259277 -2.051851273 0.1321323514
-54.28718185 -1.862842083 0.132457003
-54.27431107 -1.657301426 0.1423939914
-54.28678513 -1.490139961 0.1318536401
-54.26679993 -1.258917809 0.1160055548
-54.23550415 -0.9969854355 0.1076900065
-54.26506805 -0.8106479645 0.1023500115
-54.3452301 -0.60896492 0.1021433324
-54.31582642 -0.4543294907 0.1038966626
-54.26625824 -0.2369937897 0.1027259901
-54.25456619 -0.06225585938 0.1017485633
-54.2426033 0.09135055542 0.09891083091
-54.28432846 0.3268928528 0.1004150063
-54.27091217 0.5024318695 0.1011239961
-54.28492737 0.7053451538 0.1040542796
-54.2944603 0.9081249237 0.101138562
-54.32244873 1.150554657 0.1011724919
-54.34722137 1.320697784 0.1011650115
-54.19394684 0.813911438 0.1018099934
-54.23456573 0.9886627197 0.1008728594
-54.28926468 1.126850128 0.1009149849
-54.27433395 1.372053146 0.1009899974
-54.28571701 1.521183014 0.1027442813
-54.26353836 1.75680542 0.1041487455
-54.26377106 1.998321533 0.1158258021
-54.0846405 -3.550004005 0.1500100046
-54.09174728 -3.264413357 0.1309966594
-54.08890533 -3.141873598 0.1268390417
-54.09998322 -2.917755127 0.1453659981
-54.06357193 -2.693915844 0.1435542703
-54.07915878 -2.497419119 0.135386914
-54.07749557 -2.313360929 0.1303246617
-54.1006279 -2.144683361 0.1288179904
-54.0897522 -1.901652336 0.1307862401
-54.05938721 -1.715528011 0.1264859885
-54.0810585 -1.507705688 0.1305081844
-54.08060837 -1.319592476 0.1236295328
-54.07137299 -1.099036217 0.1289781779
-54.06932068 -0.9268035889 0.1220133379
-54.03926086 -0.7153806686 0.1099174842
-54.07780838 -0.5249919891 0.1039816588
-54.07698822 -0.3230371475 0.1003949791
-54.09360123 -0.1747951508 0.09975600243
-54.06761932 0.1127910614 0.1019033343
-54.10414124 0.3018474579 0.1025450081
-54.10073853 0.4646530151 0.1004699916
-54.07305527 0.6457157135 0.1013833359
-54.17021179 0.9331321716 0.1011999696
-54.00505447 0.1904640198 0.120729968
-54.01337814 0.5300979614 0.1022920012
-54.07561874 0.6579170227 0.1027433351
-54.04529953 0.8830299377 0.1028955579
-54.07150269 1.072774887 0.1013012454
-54.08070755 1.271665573 0.1035990864
-54.06764603 1.484199524 0.1031109095
-54.06441498 1.643138885 0.1053544432
-54.08551407 1.869258881 0.1058477759
-54.07897949 2.021522522 0.1191423759
-53.88699341 -3.515898943 0.1488513052
-53.85709 -3.25957489 0.1435150057
-53.90950775 -3.05318284 0.1499244422
-53.87578201 -2.861107588 0.1347657144
-53.8675766 -2.664316654 0.1319642812
-53.87476349 -2.422089577 0.1336553842
-53.86600876 -2.280702829 0.1424638331
-53.9018631 -2.051850319 0.1321271509
-53.8575325 -1.848014355 0.1369607151
-53.91599655 -1.669396877 0.1381076872
-53.87075806 -1.485566139 0.1209966615
-53.86230087 -1.239830971 0.125068754
-53.85791397 -1.041810036 0.1241724938
-53.87135315 -0.8550977707 0.1268088222
-53.89965439 -0.6623668671 0.1182472706
-53.8564415 -0.4677333832 0.1258921325
-53.81535339 -0.2504987717 0.1123200059
-53.86722946 0.00394821167 0.09775222838
-53.87999725 0.1211986542 0.1037999988
-53.88072968 0.330329895 0.1041209996
-53.87813568 0.5193023682 0.1057483405
-53.79791641 0.6678924561 0.1070800051
-53.8878212 1.005472183 0.1199700087
-53.83959579 1.128087997 0.1069614217
-53.87524414 1.380182266 0.1022740081
-53.82355881 1.57409668 0.102899991
-53.89126205 1.753543854 0.1026722193
-53.86710739 1.954236984 0.1016787514
-53.88798523 2.146795273 0.1011040062
-53.86408997 2.344179153 0.1009163633
-53.86624146 2.529197693 0.103500016
-53.88598251 2.736606598 0.1053741649
-53.87429428 2.990478516 0.1146478206
-53.68563461 -3.486357212 0.1471650004
-53.66553116 -3.258353949 0.1428172737
-53.68357468 -3.064561844 0.1430066675
-53.68332291 -2.855737448 0.1428208351
-53.65698624 -2.677187681 0.1409499943
-53.66977692 -2.442378044 0.1387783438
-53.66114044 -2.238079071 0.1299274862
-53.64792252 -2.083940983 0.1394583434
-53.68528748 -1.896392345 0.1438287497
-53.67243958 -1.659703255 0.132523343
-53.64797592 -1.430435181 0.1331849843
-53.68574524 -1.27551651 0.1324300021
-53.69068527 -1.057356834 0.128519997
-53.67312241 -0.8512182236 0.1292620003
-53.66849136 -0.6668224335 0.125084281
-53.63386536 -0.436258316 0.1279549897
-53.66781235 -0.2640028 0.1370309889
-53.68230057 -0.08499145508 0.1235107705
-53.64450836 0.1496276855 0.1164016649
-53.65526962 0.3273143768 0.1168922186
-53.70999146 0.4875946045 0.106814988
-53.68227386 0.7590618134 0.1096163765
-53.64853668 0.9244995117 0.1061483249
-53.61450958 1.141773224 0.1066533253
-53.68802643 1.290475845 0.1031024903
-53.71409607 1.493349075 0.1032899991
-53.70264816 1.668916702 0.104399994
-53.69841766 1.916728973 0.1021324992
-53.68570328 2.121507645 0.1027690023
-53.64416122 2.377565384 0.1016485617
-53.68606186 2.526821136 0.103230007
-53.6778183 2.744457245 0.1043815389
-53.6944809 3.000442505 0.1157738864
-53.47138596 -3.503144264 0.1513566673
-53.46371078 -3.256420851 0.1418262571
-53.4666748 -3.057496309 0.1411024928
-53.4802475 -2.850848436 0.147242859
-53.47858429 -2.648845196 0.1453153342
-53.46871948 -2.485153198 0.1434746683
-53.45616913 -2.271866798 0.1430453807
-53.47398758 -2.027207375 0.1362212598
-53.49174118 -1.859263897 0.142294541
-53.45971298 -1.691641331 0.1296768785
-53.47550964 -1.4550457 0.138034001
-53.48763657 -1.249053001 0.1309436858
-53.47327423 -1.056569099 0.1347372681
-53.46088791 -0.8473043442 0.1246246099
-53.48212814 -0.6507139206 0.1318458319
-53.46679688 -0.4769954681 0.1312264651
-53.46672821 -0.2553367615 0.1231849864
-53.45845413 -0.07201957703 0.1321018189
-53.4949646 0.1139221191 0.1136575043
-53.49298096 0.3528728485 0.12210273
-53.46676254 0.5514812469 0.1198963672
-53.46525574 0.7319355011 0.1139109954
-53.45930099 0.9258575439 0.1063287556
-53.47273254 1.154222488 0.107450895
-53.46711349 1.349571228 0.1044128463
-53.4719162 1.547582626 0.1035100073
-53.48212433 1.766618729 0.1068900004
-53.44374084 1.955965042 0.1028866693
-53.48042297 2.141868591 0.1028985679
-53.4901619 2.32837677 0.1024774835
-53.46260834 2.548561096 0.1027050018
-53.45285416 2.73361969 0.1029969975
-53.48810577 2.994869232 0.1132964268
-53.25696945 -3.525140285 0.1516545862
-53.25753403 -3.272934914 0.1435299814
-53.29447937 -3.054222107 0.1461512446
-53.27105713 -2.865270376 0.1420449913
-53.2983551 -2.659947634 0.1450155526
-53.29467392 -2.437144518 0.1454930753
-53.25744629 -2.258555174 0.1441787332
-53.27990341 -2.048769474 0.1423236281
-53.2640686 -1.862275124 0.1424774826
-53.27065277 -1.66335392 0.1393979937
-53.25247955 -1.450268745 0.1405774951
-53.27725601 -1.2539711 0.135214448
-53.27533722 -1.033180237 0.1351308227
-53.27197266 -0.865568161 0.1308619976
-53.29269791 -0.6542367935 0.1306088269
-53.28307724 -0.4391918182 0.1230020002
-53.27215576 -0.2475242615 0.128973335
-53.27115631 -0.06760025024 0.1242889985
-53.26627731 0.1538486481 0.1146519929
-53.27150345 0.3524646759 0.1195574924
-53.27004623 0.5348625183 0.117502138
-53.25408936 0.7258853912 0.1202846095
-53.27890015 0.9187431335 0.118012771
-53.2756958 1.123350143 0.1198164225
-53.29288483 1.33849144 0.1102445424
-53.29029846 1.519081116 0.1070983186
-53.2182045 1.690004349 0.105992496
-53.26264572 1.940696716 0.1031725034
-53.28380585 2.10852623 0.1031749994
-53.24472046 2.313907623 0.1025614366
-53.2654686 2.540428162 0.103396669
-53.27980423 2.731040955 0.1040849984
-53.29400253 3.001880646 0.1180526242
-64.06853485 -3.528272152 0.1206680015
-64.10284424 -3.278310299 0.1001389995
-64.06115723 -3.092282057 0.1194072813
-64.10912323 -2.888549328 0.1211999953
-64.07011414 -2.688213348 0.1251386702
-64.07269287 -2.492266893 0.1246745437
-64.07383728 -2.298174858 0.106056869
-64.07270813 -2.120884895 0.115970999
-64.07165527 -1.903498173 0.1098411083
-64.05294037 -1.678726196 0.1178033277
-64.07098389 -1.497112274 0.1051789895
-64.102211 -1.307938576 0.07843475789
-64.08003235 -1.121509552 0.1045908257
-64.07452393 -0.8978977203 0.08707199991
-64.08813477 -0.6733055115 0.08748400211
-64.05505371 -0.4817390442 0.07998874038
-64.10505676 -0.2588319778 0.08501856774
-64.07733154 -0.1277198792 0.08393415809
-64.08869934 0.1335449219 0.07817769796
-64.08287811 0.2768611908 0.08900915831
-64.07624817 0.5033302307 0.09035499394
-64.07318115 0.744594574 0.08347933739
-64.07563782 0.9051170349 0.09531199187
-64.0887146 1.112134933 0.08235909045
-64.08966064 1.29438591 0.09292799234
-64.08852386 1.521524429 0.07995498925
-64.10978699 1.741729736 0.07640856504
-64.09198761 1.895687103 0.07656768709
-64.09793091 2.100006104 0.07559998333
-64.09703064 2.327331543 0.07531251013
-64.0871582 2.503650665 0.07707416266
-64.07102966 2.722515106 0.06266500056
-64.09915161 2.908554077 0.07344999164
-64.07718658 3.026180267 0.08636899292
-53.06429672 -3.498446941 0.1487093419
-53.06118393 -3.263263226 0.1439572722
-53.06402588 -3.046742916 0.1437526643
-53.0963707 -2.862070084 0.1437191516
-53.05464172 -2.65501976 0.1465809047
-53.10408783 -2.445843697 0.1417944282
-53.08055115 -2.274582386 0.1426739991
-53.08138275 -2.057926178 0.1432478428
-53.0755806 -1.863176823 0.1420641541
-53.09823608 -1.677787781 0.1419654489
-53.05236816 -1.476023674 0.1419733316
-53.09114838 -1.243108749 0.1394879967
-53.07834625 -1.083729744 0.1340539902
-53.09887314 -0.8639678955 0.1297059953
-53.09782028 -0.6747121811 0.1319476962
-53.07744217 -0.4550275803 0.1267882437
-53.08599091 -0.2656068802 0.1218125001
-53.06343842 -0.06758880615 0.133390829
-53.07849884 0.1388645172 0.1063894033
-53.08343887 0.3365421295 0.1178884581
-53.0723114 0.5597114563 0.120126836
-53.09302902 0.7672290802 0.118903555
-53.08072281 0.9348773956 0.1197353825
-53.08414841 1.1456604 0.1208016574
-53.08895493 1.343187332 0.1152399927
-53.06545258 1.533102036 0.1183290035
-53.07933807 1.747419357 0.1145521402
-53.07615662 1.943508148 0.1085307077
-53.08259583 2.146413803 0.1040762514
-53.06034851 2.388114929 0.1028533354
-53.05603409 2.567695618 0.1039159968
-53.06312561 2.71521759 0.1043242887
-53.04598999 2.97063446 0.1147858277
-52.87646103 -3.522251368 0.1491287053
-52.86542892 -3.247748613 0.1457561404
-52.88856506 -3.076584816 0.1463029981
-52.88596344 -2.851553917 0.1434030831
-52.86817169 -2.660563231 0.1442246139
-52.90534973 -2.464643717 0.1463235617
-52.86126709 -2.249247551 0.1425507069
-52.86097336 -2.078109741 0.1453214288
-52.8861084 -1.887996674 0.1405262351
-52.89680481 -1.655620575 0.1409160048
-52.8848114 -1.444925308 0.1415091008
-52.88086319 -1.278813362 0.1403066665
-52.87982178 -1.055236816 0.1336199939
-52.86816788 -0.8953676224 0.1253900081
-52.88711929 -0.663725853 0.1257150024
-52.85469818 -0.4494810104 0.1211933345
-52.88091278 -0.2367658615 0.1178323105
-52.88204575 -0.05638313293 0.1186126694
-52.88204193 0.1358985901 0.1154427305
-52.88245773 0.3345718384 0.1147327721
-52.86745453 0.5218734741 0.1182149947
-52.88145828 0.7318058014 0.1188221052
-52.85200882 0.9215259552 0.1147512347
-52.87019348 1.111028671 0.1195761561
-52.884552 1.311117172 0.1186679974
-52.86423874 1.51493454 0.1255621314
-52.84922028 1.730514526 0.1190184578
-52.87679672 1.941493988 0.1159673333
-52.87230301 2.131820679 0.1238373294
-52.8662796 2.337625504 0.1089477688
-52.86991882 2.525062561 0.1046138406
-52.83343506 2.764610291 0.1058249995
-52.85406494 3.006000519 0.1181947067
-52.67723846 -3.46833992 0.1436489969
-52.66635513 -3.238593102 0.1469412595
-52.71368408 -3.06671381 0.1455128491
-52.67063904 -2.862733126 0.1464330852
-52.68754578 -2.663155079 0.1455133259
-52.70576096 -2.454791546 0.1446513236
-52.6856842 -2.269937515 0.1454728544
-52.69961166 -2.046666145 0.142565012
-52.69441223 -1.888864994 0.1461209059
-52.66812134 -1.669566154 0.1383709013
-52.70087814 -1.463225365 0.130271256
-52.71781921 -1.215575218 0.1265619993
-52.69988251 -1.094883919 0.1275262535
-52.70718765 -0.8466739655 0.1199457049
-52.70516205 -0.648188591 0.1151350066
-52.70254898 -0.4511165619 0.1252640039
-52.68563461 -0.2020721436 0.1078099981
-52.7722168 -0.09568595886 0.1389199942
-52.66963196 0.1449890137 0.1033933237
-52.66109467 0.3907356262 0.1261859983
-52.69422531 0.5406036377 0.1152007207
-52.66742706 0.7320232391 0.1179778576
-52.66003418 0.9535560608 0.1172930822
-52.66622162 1.139511108 0.1232621446
-52.68265152 1.344087601 0.1147037446
-52.68511581 1.562992096 0.1145374998
-52.70027542 1.752910614 0.1283955574
-52.67667389 1.940853119 0.1156212538
-52.65074158 2.126752853 0.1115076467
-52.66279221 2.342802048 0.1126231253
-52.67128372 2.542030334 0.1152146161
-52.64968109 2.739936829 0.1201899946
-52.6765213 2.974609375 0.1185973287
-52.454216 -3.504958868 0.1528969556
-52.46039963 -3.252099037 0.147391811
-52.47764587 -3.059350967 0.1408199817
-52.45578384 -2.879701853 0.1403222233
-52.46389771 -2.672590256 0.1436229944
-52.51289368 -2.485251665 0.1435318142
-52.44686508 -2.22986269 0.1740033329
-52.4745369 -2.057545662 0.1445199996
-52.49636078 -1.847723007 0.1365575045
-52.51213074 -1.68667984 0.1380966604
-52.55010986 -1.391136169 0.1048549861
