# .PCD v0.7 - Point Cloud Data file format
VERSION 0.7
FIELDS x y z
SIZE 4 4 4
TYPE F F F
COUNT 1 1 1
WIDTH 1297
HEIGHT 1
VIEWPOINT 0 0 0 1 0 0 0
POINTS 1297
DATA ascii
-63.08189774 3.728978157 2.382354736
-63.07073212 3.790368795 2.576432228
-63.07732391 3.842875004 2.739331245
-63.07711029 3.94493413 3.048168182
-63.08768845 3.984611034 3.170215607
-63.08190155 4.052456856 3.376840591
-63.08079147 4.117719173 3.573234558
-63.08150864 4.186669827 3.779489517
-63.08541489 4.252354145 3.974693298
-63.07860947 4.316761971 4.167383194
-63.09098434 4.384432793 4.36933136
-63.08035278 4.444385529 4.549480438
-62.89465332 3.025553703 0.2145265639
-62.88782883 3.086192369 0.4097374678
-62.88692856 3.148163557 0.6033010483
-62.88698578 3.216183662 0.8054232597
-62.88734436 3.282024622 1.004234314
-62.88085938 3.34659791 1.204391956
-62.87230682 3.411107063 1.399009705
-62.88131332 3.477709055 1.600710869
-62.8837471 3.543812275 1.805900574
-62.88291168 3.599433899 1.985640526
-62.88398743 3.672529697 2.210386276
-62.8815918 3.737356663 2.412669182
-62.8806572 3.799763918 2.608046532
-62.8915596 3.84498024 2.749199867
-62.88314056 3.950332165 3.068853378
-62.8843956 3.9979949 3.212371826
-62.87923813 4.060480118 3.402240753
-62.87696075 4.12747097 3.602933884
-62.88220215 4.197930813 3.813018799
-62.87760544 4.260986805 4.000133514
-62.88991165 4.323727608 4.186588287
-62.88285828 4.39518261 4.401216507
-62.88432312 4.450671673 4.567287445
-62.68909836 3.024979353 0.2159814686
-62.71139908 3.091840982 0.4327489138
-62.70422745 3.154067516 0.6241476536
-62.71062088 3.220482349 0.8195869923
-62.69311523 3.291806221 1.034146309
-62.68718719 3.353403091 1.223314762
-62.67448044 3.418219328 1.420924664
-62.67856598 3.484353065 1.621191978
-62.6762619 3.54954195 1.823386192
-62.68592072 3.604855061 2.000367165
-62.67604828 3.676650524 2.222644806
-62.69184875 3.742317915 2.428059578
-62.68270111 3.806391001 2.628919601
-62.68760681 3.847188473 2.759531975
-62.67155457 3.951066017 3.072738647
-62.68464661 4.001557827 3.225013733
-62.68068695 4.06478405 3.415502548
-62.68288422 4.13035059 3.612606049
-62.6882515 4.201300144 3.825906754
-62.68561554 4.265519142 4.01348877
-62.68055725 4.334833622 4.219947815
-62.67284775 4.401287079 4.420366287
-62.692276 4.451313496 4.57192421
-62.48123932 3.015735149 0.1882746071
-62.46371078 3.078509092 0.3850787878
-62.45700073 3.140961885 0.5807859898
-62.45342255 3.201025724 0.7641124725
-62.437397 3.263385057 0.9517269135
-62.43873596 3.351726055 1.220134258
-62.50626373 3.41070509 1.398132324
-62.50015259 3.469925165 1.579784393
-62.49466705 3.533375025 1.773939133
-62.48910904 3.594018698 1.962591171
-62.47592926 3.665420532 2.187328339
-62.4777565 3.72902894 2.388085365
-62.48296738 3.79039526 2.578637123
-62.47720337 3.841440678 2.743618011
-62.48095322 3.945100784 3.053236008
-62.49192429 3.986822367 3.181869507
-62.49061966 4.049939632 3.373369217
-62.48331833 4.118314266 3.577777863
-62.48661423 4.186467171 3.780221939
-62.48060989 4.257872105 3.992742538
-62.47909927 4.319449425 4.177400589
-62.47856903 4.388238907 4.383747101
-62.48132324 4.442059517 4.548513412
-62.26594543 3.019224405 0.2018004209
-62.28577805 3.0820539 0.3972438574
-62.2824173 3.146935701 0.5982868671
-62.30847168 3.216884375 0.8088121414
-62.30026245 3.282406807 1.00775671
-62.31167603 3.343474388 1.194374561
-62.29299927 3.410181046 1.397388935
-62.27435684 3.477165461 1.605496407
-62.27298737 3.543190956 1.805966377
-62.27429962 3.608698606 2.010689735
-62.32394791 3.66748786 2.195744514
-62.28833008 3.736261129 2.413234711
-62.28430176 3.803323269 2.620380402
-62.28032303 3.846273661 2.757885933
-62.27293015 3.95347023 3.07843399
-62.27583313 3.995757341 3.209581375
-62.27446747 4.064985752 3.416366577
-62.27376556 4.128167152 3.608888626
-62.28243256 4.197062016 3.813774109
-62.27801514 4.263874531 4.011238098
-62.28316498 4.327373505 4.201658249
-62.28064346 4.396681786 4.410324097
-62.28663254 4.448674679 4.569393158
-62.08266449 3.016598225 0.1935226917
-62.08694458 3.07429266 0.373699069
-62.08691406 3.139781237 0.57487607
-62.07962418 3.204714775 0.7707872391
-62.08312988 3.272565126 0.9745445251
-62.07358551 3.340077162 1.184384346
-62.08081436 3.404140711 1.378240108
-62.06390762 3.470802069 1.574700356
-62.06877136 3.5362432 1.779262543
-62.08835602 3.588166237 1.945869446
-62.05153656 3.662558794 2.174543381
-62.04997253 3.727204561 2.380204201
-62.05781937 3.788840532 2.571352959
-62.05458832 3.845259666 2.747632027
-62.06674576 3.94471693 3.05585289
-62.06661987 3.987368107 3.18189621
-62.06397629 4.051779747 3.37421608
-62.08322144 4.116812706 3.573659897
-62.07952118 4.187295437 3.784374237
-62.08156967 4.251459122 3.976003647
-62.088871 4.319604397 4.177337646
-62.08499527 4.383749485 4.372583389
-62.08621979 4.441775322 4.549610138
-61.87601852 3.018852234 0.1991574168
-61.88381195 3.084768534 0.40397048
-61.87383652 3.153768063 0.6126627922
-61.88382339 3.215001345 0.8048186302
-61.87668228 3.28061533 0.9992318153
-61.88922882 3.346740246 1.20471096
-61.87891388 3.411852121 1.400025368
-61.88391113 3.48009038 1.606485367
-61.88329315 3.545286179 1.809735298
-61.89248657 3.595036983 1.973028183
-61.88470078 3.672085762 2.209337234
-61.88408279 3.737384081 2.414198875
-61.88097382 3.799117327 2.607504845
-61.88325882 3.850152016 2.766976357
-61.87113953 3.950749636 3.068458557
-61.88227463 3.998050928 3.21320343
-61.88560486 4.062836647 3.4109478
-61.87932968 4.127455711 3.605604172
-61.88262558 4.198759079 3.8176651
-61.88306808 4.262056828 4.006313324
-61.88916016 4.330057144 4.210866928
-61.88018799 4.396520615 4.41270256
-61.88030624 4.447695732 4.570127487
-61.69357681 3.022758245 0.2097958624
-61.67758179 3.090167522 0.4200742245
-61.68823242 3.153219938 0.6090707779
-61.6870842 3.216265678 0.8014464378
-61.68144226 3.282516241 1.008417606
-61.67682648 3.346417427 1.205041885
-61.67874527 3.411903858 1.402558327
-61.6744194 3.482988119 1.614292145
-61.67832565 3.544378996 1.805886269
-61.66865921 3.602468967 1.991778374
-61.68307495 3.674848557 2.215574265
-61.67338562 3.73833251 2.412405968
-61.6819725 3.798533678 2.603462219
-61.68462753 3.848668337 2.759860992
-61.69364166 3.95090723 3.065156937
-61.68091965 3.998015165 3.208015442
-61.68641281 4.061649323 3.402284622
-61.68013382 4.126853943 3.602100372
-61.686203 4.195812702 3.807395935
-61.68631744 4.257978916 3.993581772
-61.71042252 4.325451851 4.19875145
-61.71165466 4.39140892 4.403133392
-61.70772171 4.442739487 4.560239792
-61.48846817 3.025064707 0.2171871066
-61.48665237 3.086595774 0.4092005491
-61.48539734 3.152515888 0.6036462784
-61.48405457 3.216938019 0.801813364
-61.48146057 3.283039808 1.007650852
-61.47687149 3.347403526 1.206419945
-61.47932434 3.412563562 1.403085709
-61.48044586 3.478731871 1.603664398
-61.47989655 3.543220043 1.802602768
-61.49693298 3.599704027 1.981759071
-61.48280716 3.680354357 2.228470802
-61.48236847 3.738963366 2.410456657
-61.47568512 3.80279541 2.611373901
-61.47226334 3.852232933 2.762722969
-61.47306061 3.954282522 3.067220688
-61.48794937 4.0016675 3.215314865
-61.48251343 4.066775799 3.41261673
-61.48510742 4.128363609 3.601989746
-61.48109436 4.199885368 3.819721222
-61.47894287 4.251552582 3.970003128
-61.48786163 4.327406883 4.209749222
-61.47859573 4.393357754 4.409402847
-61.46233749 4.449748039 4.578601837
-61.28415298 3.021300077 0.2048683465
-61.27510071 3.08648324 0.4094432592
-61.27914429 3.150161982 0.6040737629
-61.2795372 3.217048645 0.8049829006
-61.27700806 3.279608965 0.9964966774
-61.28198242 3.346770763 1.205910206
-61.27886963 3.411637545 1.402628422
-61.2838974 3.479866266 1.6080513
-61.28892899 3.541373968 1.797907829
-61.28314209 3.600168943 1.988718987
-61.27770615 3.676871061 2.220964432
-61.28768921 3.737943172 2.409863472
-61.28461456 3.801696539 2.607822418
-61.27882767 3.853291035 2.767401695
-61.28780365 3.952671289 3.066781998
-61.28208542 3.997064829 3.20283699
-61.28103638 4.060914993 3.398111343
-61.29279327 4.126894951 3.601335526
-61.27877045 4.198092461 3.816949844
-61.26665497 4.260159492 4.00213623
-61.27540207 4.327833176 4.206972122
-61.28845978 4.390687466 4.399990082
-61.28353119 4.448230267 4.576383591
-64.87058258 3.027588844 0.2027111501
-64.87503815 3.090722799 0.3953633308
-64.87249756 3.151185274 0.5853435993
-64.86747742 3.208696365 0.7692854404
-64.81443024 3.27065587 0.9568886757
-64.88545227 3.352548361 1.198469162
-64.88578796 3.415721655 1.394217014
-64.873703 3.478506088 1.589776993
-64.88301086 3.539613724 1.780438423
-64.88041687 3.604952335 1.986944199
-64.87216187 3.666769028 2.174573898
-64.88392639 3.739780426 2.400395393
-64.8837738 3.801337481 2.591316223
-64.88781738 3.846615791 2.736231804
-64.88336182 3.952463865 3.053432465
-64.88625336 3.998337984 3.191432953
-64.88585663 4.063489914 3.388168335
-64.88374329 4.130045891 3.591545105
-64.88597107 4.196414471 3.790779114
-64.89282227 4.260712147 3.986888885
-64.88838196 4.328805447 4.194171906
-64.89627075 4.393236637 4.388904572
-64.88383484 4.447663784 4.555673599
-61.08211517 3.019868374 0.2027891725
-61.08186722 3.084475756 0.4056224823
-61.08670044 3.150643826 0.6089680195
-61.08188629 3.2164886 0.8057229519
-61.07965851 3.283344269 1.006884098
-61.08845901 3.346393824 1.203672886
-61.08479309 3.410021544 1.398766518
-61.08470154 3.477198601 1.600234985
-61.07986069 3.542592525 1.803853989
-61.0655632 3.603286028 1.9989748
-61.07658768 3.678816795 2.229496002
-61.08680725 3.736010551 2.407022476
-61.0819664 3.800673723 2.606633186
-61.09460068 3.852633476 2.770088196
-61.0728569 3.950310469 3.067371368
-61.08127213 3.994535446 3.203231812
-61.07727432 4.061733723 3.4047966
-61.08544159 4.127546787 3.606550217
-61.07561874 4.196218491 3.812652588
-61.08082199 4.260397434 4.004199982
-61.08265686 4.328537464 4.210420609
-61.07977676 4.397962093 4.423044205
-61.08092499 4.44585228 4.571805954
-60.87762833 3.013217449 0.1866983473
-60.88482666 3.076331139 0.3821079731
-60.87431717 3.139049768 0.5781366825
-60.88680649 3.20798111 0.7829055786
-60.87805557 3.274682999 0.9815688133
-60.87870407 3.338173389 1.178152561
-60.88229752 3.401847601 1.37109375
-60.8876152 3.469670296 1.577932358
-60.88291168 3.534309626 1.777723312
-60.88414764 3.589730263 1.955080986
-60.89417267 3.664050579 2.190743446
-60.89369965 3.723772764 2.377127647
-60.88835907 3.787406445 2.574015617
-60.88302231 3.845249891 2.759613991
-60.88146973 3.927499771 3.029039383
-60.88277435 3.984108448 3.178209305
-60.88152695 4.049147129 3.369697571
-60.88510895 4.115870953 3.5736866
-60.87824249 4.186152935 3.785108566
-60.88003159 4.251752853 3.977380753
-60.87938309 4.317986965 4.177780151
-60.8816452 4.384501934 4.382167816
-60.88110733 4.443455696 4.56562233
-60.68183136 3.021154165 0.2122218609
-60.677845 3.086274862 0.4129931927
-60.67469788 3.150391102 0.6111307144
-60.68003082 3.220407963 0.818726778
-60.67929077 3.286817551 1.01888895
-60.68416214 3.346548557 1.204119682
-60.68042755 3.415906668 1.416252613
-60.68112183 3.481343985 1.61368084
-60.68511581 3.547054052 1.818302155
-60.69168091 3.601583958 1.994163513
-60.68207169 3.676897287 2.226485252
-60.68309402 3.73892498 2.417199135
-60.68499374 3.802457094 2.614789009
-60.69379425 3.852140188 2.769835472
-60.68754959 3.946589947 3.067609787
-60.6844902 3.997857809 3.21377182
-60.6832962 4.065816402 3.420511246
-60.68944168 4.126590729 3.607898712
-60.68138885 4.195272923 3.81819725
-60.6842308 4.262208939 4.01499939
-60.68027115 4.325530052 4.205892563
-60.68211365 4.393441677 4.411336899
-60.68014526 4.446381569 4.579645157
-60.48336411 3.015843391 0.1963853091
-60.47955322 3.077104092 0.386405468
-60.47872162 3.141361952 0.5849034786
-60.48609161 3.208500862 0.7864439487
-60.48488617 3.275555372 0.9837064743
-60.48104095 3.34211731 1.190835953
-60.48667145 3.403634548 1.380116463
-60.47358322 3.471331596 1.585886002
-60.4827652 3.535696507 1.78351593
-60.48480606 3.589942217 1.957741737
-60.47408676 3.667886972 2.197995186
-60.48417664 3.730084658 2.390542984
-60.48693085 3.791198492 2.57878685
-60.48059082 3.846844673 2.753228188
-60.48204422 3.948176622 3.055610657
-60.48270798 3.988228083 3.177570343
-60.47029114 4.054159164 3.38111496
-60.48588181 4.120172977 3.587234497
-60.49086761 4.188354969 3.799850464
-60.48825073 4.249533653 3.980400085
-60.47840118 4.316504478 4.181423187
-60.48518372 4.382709026 4.381565094
-60.48142242 4.439681053 4.557901382
-60.2977562 3.017114639 0.1989969611
-60.29836273 3.076472521 0.3835252523
-60.30016708 3.14435792 0.592056036
-60.29725647 3.203468561 0.7724149227
-60.30868149 3.271585464 0.9742941856
-60.30494308 3.339452744 1.181139469
-60.28876495 3.40690279 1.392653942
-60.29630661 3.469906807 1.584095001
-60.29601288 3.535182238 1.781897545
-60.28087997 3.591418028 1.958920479
-60.3049469 3.67112422 2.211080551
-60.28950882 3.728820801 2.390275955
-60.29337311 3.790568352 2.580040932
-60.28822327 3.84739852 2.749921799
-60.29158401 3.951409578 3.064994812
-60.28333282 3.989502907 3.181324005
-60.28490448 4.053119659 3.377771378
-60.2877388 4.12143898 3.586582184
-60.28481674 4.192046642 3.799766541
-60.28047943 4.252254009 3.983121872
-60.28378296 4.318075657 4.18696785
-60.28109741 4.381277084 4.379199982
-60.27724457 4.435719967 4.55311203
-60.06573868 3.021896839 0.216000855
-60.07549286 3.084470272 0.4126685858
-60.07064438 3.152074337 0.6197416782
-60.05615997 3.217596292 0.8161969185
-60.03809738 3.290583134 1.030769825
-60.03906631 3.351165295 1.218599796
-60.0669632 3.418179035 1.426590443
-60.06249237 3.479683876 1.611742973
-60.06537628 3.542657852 1.806043625
-60.070755 3.600553274 1.987955093
-60.05215836 3.680130005 2.237882614
-60.05853653 3.736983061 2.414365768
-60.07135773 3.801271677 2.612636566
-60.06386185 3.854639769 2.773846626
-60.08173752 3.957276583 3.083299637
-60.07184219 4.000974178 3.217773438
-60.08067322 4.06965971 3.427526474
-60.06951141 4.130534172 3.614606857
-60.07878494 4.200919628 3.827112198
-60.08510971 4.260703087 4.009084702
-60.08952332 4.326901913 4.210237503
-60.07820129 4.390844822 4.409151077
-60.08694458 4.442703247 4.577173233
-59.88602829 3.016741276 0.1997364312
-59.87985992 3.076247454 0.3838998079
-59.88562393 3.143351316 0.5901451111
-59.88044739 3.209621668 0.7882454395
-59.87798691 3.276349783 0.9878358841
-59.88075256 3.342521191 1.192595482
-59.88766098 3.405960798 1.38756609
-59.88362503 3.470611811 1.585865021
-59.88091278 3.533554077 1.780985832
-59.88497543 3.585696459 1.946847916
-59.88904953 3.674799919 2.222651482
-59.88524246 3.727232456 2.384578705
-59.8842926 3.791868925 2.585981369
-59.88577271 3.847865582 2.76026535
-59.88172531 3.95513916 3.076652527
-59.8802681 3.990929842 3.185743332
-59.88624191 4.055542469 3.384992599
-59.88235474 4.122032642 3.59070015
-59.88409042 4.187445641 3.789699554
-59.88142014 4.253491402 3.99007225
-59.88228226 4.318761826 4.191205978
-59.88291931 4.380179405 4.380451202
-59.88106918 4.438563824 4.56114006
-59.68872452 3.02017808 0.210764423
-59.67464066 3.084205627 0.4076628685
-59.68027878 3.148779392 0.6058573723
-59.67353439 3.22182107 0.8227133751
-59.67853546 3.285069227 1.014611244
-59.6788826 3.345966339 1.205928326
-59.68107605 3.415068388 1.415672302
-59.67863846 3.478903532 1.609930038
-59.68640137 3.545375109 1.817245483
-59.67237091 3.599060535 1.986034393
-59.69312668 3.68534255 2.252220154
-59.6776619 3.735209942 2.407412529
-59.67495346 3.801680803 2.61674881
-59.68644333 3.851186275 2.772108078
-59.67885971 3.951673746 3.067497253
-59.68138885 3.99995923 3.215339661
-59.68341446 4.064801693 3.416185379
-59.6900177 4.127038956 3.609588623
-59.67962265 4.19614172 3.819356918
-59.68187332 4.261264801 4.01599884
-59.67941666 4.325618267 4.214696884
-59.67594528 4.389886856 4.412176132
-59.68199921 4.443437576 4.576353073
-59.48394012 3.021039248 0.211428836
-59.47828674 3.085433483 0.4090621471
-59.47893524 3.15462923 0.6195385456
-59.48410034 3.219101667 0.8154790401
-59.48178864 3.283061504 1.008111954
-59.48743439 3.345734835 1.204354763
-59.47805405 3.411346436 1.405254364
-59.47441864 3.480768919 1.615760803
-59.48986053 3.546241045 1.819787025
-59.48222351 3.598012686 1.981095314
-59.48308563 3.686115026 2.251008034
-59.47945404 3.740795851 2.420660973
-59.48236847 3.80325675 2.617601395
-59.47939301 3.852347851 2.772457123
-59.48117828 3.95377636 3.07477951
-59.47896576 3.998501778 3.212833405
-59.48495483 4.063230515 3.411359787
-59.4850502 4.127511024 3.60997963
-59.48579788 4.193906784 3.813737869
-59.47929382 4.261198044 4.019048691
-59.47880173 4.325880051 4.215595245
-59.47755432 4.390776634 4.415590286
-59.48062897 4.44461441 4.581571579
-59.28272247 3.023679733 0.2231444269
-59.27796936 3.088405848 0.4233752489
-59.28661346 3.151268482 0.6134541035
-59.28337479 3.2153337 0.8055949211
-59.28559113 3.283003569 1.012026787
-59.27825165 3.345648289 1.209133625
-59.27472687 3.414135218 1.416509151
-59.26926041 3.479036093 1.613033295
-59.28199005 3.545051336 1.818266869
-59.28707123 3.599341154 1.987202644
-59.28227615 3.689296246 2.260519981
-59.28409576 3.741055727 2.423549652
-59.28924561 3.802034855 2.614154816
-59.28684998 3.851162195 2.768428802
-59.28601837 3.955173016 3.078838348
-59.28479004 3.999033451 3.214191437
-59.28072357 4.062821388 3.410732269
-59.28073883 4.128032684 3.612888336
-59.28019714 4.193582058 3.815841675
-59.28190613 4.259662151 4.015716553
-59.27694702 4.323856831 4.21222496
-59.28524399 4.389810562 4.414318085
-59.27637482 4.446490288 4.583717346
-64.69340515 3.020085335 0.1820774525
-64.69070435 3.088369131 0.3901515007
-64.68836975 3.154523611 0.5939927101
-64.67902374 3.221951962 0.8013305664
-64.66075134 3.284543276 0.9935903549
-64.67016602 3.346578836 1.184479237
-64.6844635 3.41592598 1.398549557
-64.69849396 3.479400396 1.595756531
-64.69049835 3.545175552 1.799827576
-64.68523407 3.60296154 1.982116699
-64.68455505 3.666993141 2.181147575
-64.676651 3.738240719 2.400445938
-64.68812561 3.797888279 2.583707809
-64.67108154 3.845653772 2.733664513
-64.69889832 3.953365564 3.054344177
-64.68927002 3.996217012 3.184959412
-64.69102478 4.062690258 3.387851715
-64.68644714 4.128143311 3.586027145
-64.68661499 4.199274063 3.80232048
-64.68081665 4.262766838 3.99499321
-64.6709671 4.329253197 4.200803757
-64.67036438 4.3911376 4.391088486
-64.66703796 4.445091724 4.558265686
-59.08634949 3.018817663 0.2110818177
-59.0822258 3.079458237 0.4013563395
-59.07935333 3.14844346 0.6097187996
-59.08268738 3.217900991 0.8159894943
-59.07826233 3.284756422 1.019655228
-59.07997894 3.346648216 1.213630199
-59.08875656 3.414022684 1.416947842
-59.08572388 3.4754951 1.604170799
-59.08066559 3.540997505 1.806491852
-59.07891846 3.599494934 1.987778664
-59.09339142 3.686520338 2.254681587
-59.08850098 3.73871994 2.417865753
-59.08367538 3.802085161 2.61371994
-59.08516312 3.852678776 2.77103138
-59.07732773 3.953973055 3.075475693
-59.08312225 3.999114752 3.214818954
-59.08813477 4.06340313 3.413883209
-59.08469391 4.129282951 3.61693573
-59.07577515 4.192304134 3.81003952
-59.08375168 4.260828495 4.018796921
-59.08452606 4.326013088 4.217149734
-59.09069824 4.389444828 4.414415359
-59.08321381 4.444036007 4.577447891
-58.88030243 3.016122103 0.2020740509
-58.88333893 3.072933197 0.3821953535
-58.88189697 3.1378057 0.5791494846
-58.87208557 3.206020594 0.7828872204
-58.88827515 3.272919178 0.9838476181
-58.88542557 3.338413 1.187984943
-58.8790741 3.402305126 1.382528782
-58.89078522 3.468141317 1.582294464
-58.87943649 3.535983324 1.79063797
-58.87693024 3.594445467 1.972304344
-58.87919998 3.676673174 2.226121902
-58.8711319 3.731642723 2.394066811
-58.88443756 3.795271397 2.589794159
-58.88611603 3.848492146 2.759331703
-58.89658356 3.95039916 3.064733505
-58.884552 3.988759756 3.185966492
-58.88602448 4.054764271 3.386787415
-58.88270569 4.118737221 3.585969925
-58.88009644 4.18611002 3.791372299
-58.88625336 4.249733925 3.984706879
-58.89004135 4.315279484 4.183176041
-58.87812424 4.381543159 4.388559341
-58.87651062 4.439214706 4.563495636
-58.68587494 3.021312952 0.2173348814
-58.67750549 3.085544348 0.417129755
-58.67968369 3.149440765 0.6158733368
-58.67786789 3.218178511 0.8208806515
-58.68034744 3.282805443 1.01666069
-58.67670822 3.345561504 1.210896969
-58.68377686 3.413840771 1.417519093
-58.68937683 3.480961561 1.620529175
-58.67414856 3.541889906 1.809875488
-58.67720795 3.602798939 2.001123428
-58.68341827 3.690335989 2.269498825
-58.68373108 3.740256548 2.420729637
-58.68431091 3.806007385 2.623932838
-58.69269562 3.855466843 2.775370598
-58.67987823 3.957823277 3.085561752
-58.6860199 4.001244068 3.222518921
-58.69023132 4.066358566 3.423650742
-58.67950058 4.130229473 3.620103836
-58.68231964 4.195903301 3.820230484
-58.68456268 4.260159492 4.015283585
-58.68253326 4.327789783 4.221124649
-58.68360901 4.391612053 4.419996262
-58.67834854 4.444091797 4.581167221
-58.48734283 3.019631147 0.2156318575
-58.4855423 3.084468126 0.418690443
-58.47777557 3.148124695 0.615688324
-58.48254776 3.218780279 0.825524807
-58.47928238 3.282440424 1.018398762
-58.48866653 3.347419739 1.218723297
-58.48218918 3.411962986 1.41426897
-58.48885345 3.475289822 1.60594368
-58.47520065 3.543527126 1.816532135
-58.48693848 3.603731155 2.004034042
-58.49204254 3.687477589 2.259754181
-58.48415756 3.738212824 2.415707588
-58.48028564 3.803164482 2.615686417
-58.48283768 3.850118399 2.760493279
-58.49308014 3.954646111 3.076871872
-58.48575211 4.001060009 3.221786499
-58.48498917 4.06482172 3.41916275
-58.48799133 4.128180504 3.614240646
-58.48668671 4.198572159 3.828584671
-58.48411179 4.262317181 4.020809174
-58.48246002 4.325851917 4.215719223
-58.48419571 4.390358925 4.416511536
-58.48472977 4.445820332 4.585939407
-58.27886581 3.020908117 0.2213873416
-58.27761841 3.085822344 0.4230661392
-58.27262115 3.150340557 0.6222860813
-58.2844162 3.218359947 0.8248698711
-58.28177643 3.28147006 1.016020298
-58.28591156 3.346984625 1.217019081
-58.28285217 3.414289474 1.42390728
-58.28371429 3.477933884 1.616157532
-58.28636932 3.543640375 1.816809654
-58.28644562 3.605151653 2.008589745
-58.28385162 3.691182613 2.277979851
-58.27898026 3.739643335 2.422899246
-58.27642059 3.804364681 2.621702194
-58.29036713 3.850845814 2.765561104
-58.29599762 3.957047224 3.084640503
-58.28607178 3.99984479 3.219100952
-58.28594208 4.067430496 3.427301407
-58.28889084 4.12790966 3.612976074
-58.27957916 4.199640751 3.832174301
-58.28517914 4.259970188 4.015918732
-58.28097534 4.325933933 4.216592789
-58.28087616 4.388483047 4.411064148
-58.28762817 4.443850517 4.582513809
-58.07655716 3.015650988 0.2054810673
-58.08314514 3.075441837 0.3920906782
-58.08857727 3.139089584 0.5894167423
-58.08574677 3.207399607 0.7949113846
-58.08929443 3.271705389 0.9875531197
-58.09247589 3.338651896 1.194913864
-58.098526 3.40608573 1.400143623
-58.10299683 3.470098734 1.592243195
-58.09909439 3.535111189 1.785125732
-58.10478973 3.601780176 1.993778229
-58.10004807 3.672496319 2.221311569
-58.09872055 3.730988979 2.393832207
-58.09610367 3.795146465 2.591840744
-58.10015106 3.849256277 2.755064964
-58.08541107 3.951791048 3.069793701
-58.10108185 3.992387056 3.197458267
-58.10235596 4.056955814 3.394908905
-58.09909821 4.122487068 3.600440979
-58.0962677 4.186715603 3.794862747
-58.10613632 4.249055386 3.989328384
-58.09307861 4.315624714 4.19238472
-58.07944489 4.382425785 4.401414871
-58.09568787 4.443664551 4.578355789
-57.89990234 3.021378756 0.2207306772
-57.8977356 3.083081484 0.4188078642
-57.88923264 3.147537947 0.6169338226
-57.90513611 3.203568935 0.7910621166
-57.85780334 3.248655558 0.9754815102
-57.90880585 3.362321377 1.270945549
-57.87615967 3.413759947 1.431445599
-57.87140656 3.474751234 1.61520195
-57.89525223 3.541826248 1.813475609
-57.8880806 3.602022648 2.001220703
-57.88730621 3.693340063 2.294688225
-57.88032532 3.735553026 2.420070648
-57.88008881 3.80254674 2.624019623
-57.88752747 3.853569984 2.778888702
-57.89949799 3.955483913 3.083011627
-57.88046265 4.000923634 3.230552673
-57.8896637 4.066500187 3.427186966
-57.89437103 4.122123718 3.600788116
-57.87145615 4.192755699 3.819835663
-57.8838768 4.256476879 4.00686264
-57.89073563 4.321201801 4.212268829
-57.88830566 4.38297987 4.401325226
-57.88460541 4.444282532 4.575901031
-57.68810272 3.018485069 0.2128207088
-57.68285751 3.073471308 0.3887686729
-57.68058777 3.136999846 0.5863282681
-57.67542648 3.200955153 0.7838582993
-57.6760025 3.252081394 0.9603123665
-57.68582153 3.339840889 1.203405857
-57.68608856 3.406803608 1.407664299
-57.68524933 3.463270187 1.585562706
-57.67810822 3.532980442 1.793506622
-57.6775589 3.592881441 1.979834557
-57.6413765 3.662766218 2.193744659
-57.67683029 3.729545355 2.401464462
-57.65671539 3.790014029 2.585436821
-57.66445923 3.849588633 2.766440392
-57.66448975 3.952218294 3.073469162
-57.65685654 3.993177891 3.199586868
-57.6599884 4.057293892 3.398132324
-57.66574097 4.117640972 3.585699081
-57.67494202 4.179179192 3.775894165
-57.68037415 4.253629684 3.998218536
-57.67607498 4.312535763 4.177974701
-57.68629456 4.392257214 4.424411774
-57.68604279 4.442448616 4.572208405
-57.4779892 3.021451235 0.222469002
-57.46324539 3.08740592 0.4271291494
-57.45833588 3.15000701 0.6207356453
-57.45265198 3.215355396 0.8191421032
-57.45684814 3.282756567 1.026051044
-57.4654541 3.346846581 1.221321106
-57.46430969 3.41261673 1.422343254
-57.47753906 3.476904869 1.617146492
-57.47317886 3.541425943 1.816477776
-57.48503113 3.610375881 2.030153275
-57.49710083 3.677623749 2.23111248
-57.47465515 3.740677595 2.430757523
-57.47921753 3.803390741 2.627725601
-57.49010468 3.851396561 2.776939392
-57.48851776 3.954758883 3.086874008
-57.48287582 3.999020338 3.220445633
-57.48176575 4.066418648 3.424882889
-57.48124313 4.129473686 3.619060516
-57.47860336 4.192209244 3.812770844
-57.49565887 4.263800621 4.025577545
-57.49986267 4.326987267 4.215749741
-57.49465179 4.402758121 4.448749542
-57.48796082 4.445034504 4.58899498
-57.27801895 3.018963099 0.2222592384
-57.28960419 3.084400415 0.4236998558
-57.29330063 3.147546768 0.6138923168
-57.29095459 3.216411829 0.8237681389
-57.30183792 3.283272982 1.030923367
-57.29379654 3.345716715 1.222874641
-57.27783585 3.410390854 1.418872356
-57.28029633 3.479386806 1.626720428
-57.28405762 3.53987956 1.815769196
-57.2835083 3.607708216 2.029260635
-57.27386475 3.666640043 2.213608742
-57.28449249 3.738834858 2.4325037
-57.28364563 3.799548864 2.621608734
-57.289608 3.848283768 2.771564484
-57.26695633 3.954702377 3.087907791
-57.27592087 3.998700142 3.220687866
-57.27653503 4.063912392 3.422210693
-57.27877045 4.128602028 3.621517181
-57.27954865 4.190165997 3.808258057
-57.26313019 4.26147604 4.02040863
-57.27107239 4.323660374 4.210319519
-57.26869202 4.392931461 4.418218613
-57.28839874 4.453615189 4.596986771
-64.48751831 3.027667999 0.2081569284
-64.50968933 3.09275794 0.4070771933
-64.50305176 3.159447908 0.6107039452
-64.49510193 3.221794128 0.8043894768
-64.49596405 3.286844254 1.006817818
-64.48138428 3.347246647 1.194372654
-64.47945404 3.413580179 1.397021294
-64.46027374 3.478221655 1.596785545
-64.46808624 3.542700768 1.797168732
-64.48770142 3.610013723 2.004784584
-64.50895691 3.66557765 2.177625656
-64.49497986 3.741636515 2.413803101
-64.50127411 3.801868916 2.598608971
-64.4803009 3.845018387 2.734313011
-64.46764374 3.957074165 3.066265106
-64.48864746 3.997871637 3.19389534
-64.47698975 4.064351082 3.398286819
-64.47674561 4.129499912 3.59614563
-64.47705078 4.200131893 3.809453964
-64.48445129 4.260151863 3.991329193
-64.48429871 4.330030918 4.204576492
-64.48138428 4.393666267 4.399116516
-64.48335266 4.445180893 4.555746078
-57.11164856 3.01273489 0.2069891244
-57.07136917 3.076748848 0.4065358639
-57.07706451 3.141997576 0.6034762859
-57.07849121 3.207890034 0.8005321026
-57.08063507 3.27203393 0.9961280823
-57.06550598 3.337029457 1.199653625
-57.06169128 3.401573896 1.394500732
-57.09371948 3.467424393 1.591538429
-57.09812546 3.532697201 1.793741226
-57.1015625 3.601516724 2.017348289
-57.07775116 3.655327082 2.183141708
-57.085289 3.731922626 2.413903236
-57.08804321 3.796408415 2.613049507
-57.08812714 3.846126318 2.767177582
-57.09931183 3.946894646 3.064170837
-57.09901428 3.992104292 3.200515747
-57.09966278 4.056677818 3.399770737
-57.09233856 4.119285583 3.597513199
-57.07260513 4.183267117 3.797492981
-57.09489441 4.25079298 3.995433807
-57.08584595 4.321427345 4.204750061
-57.07661057 4.387836456 4.402118683
-57.08964539 4.447078228 4.579488754
-56.87244034 3.020043612 0.2320947051
-56.87648773 3.080810547 0.4196798801
-56.88578415 3.147447586 0.6219322681
-56.891716 3.213987827 0.8207616806
-56.89430618 3.282188654 1.027968407
-56.89429092 3.345620155 1.225202084
-56.89925766 3.413259983 1.428112507
-56.89887619 3.479181051 1.627731323
-56.90189743 3.53224206 1.801176071
-56.9137764 3.58792448 1.993770599
-56.87811279 3.686440229 2.277143478
-56.88820267 3.73793745 2.435602188
-56.87744141 3.798970222 2.621575356
-56.85401154 3.851976871 2.779220581
-56.87801743 3.94724369 3.084363937
-56.88614655 3.99302721 3.228536606
-56.87485504 4.06741333 3.440168381
-56.8718338 4.12899065 3.629922867
-56.865448 4.195133209 3.832250595
-56.87855911 4.254447937 4.017189026
-56.88004303 4.321908951 4.221879959
-56.88067627 4.397081375 4.433216095
-56.87837982 4.451853752 4.591444016
-56.70054626 3.016490936 0.2257692367
-56.7000618 3.07813549 0.4168972969
-56.68180466 3.146682262 0.6219995022
-56.65032196 3.216326714 0.831328392
-56.65211487 3.282452822 1.03514719
-56.67425537 3.347622395 1.234659195
-56.65962601 3.414005518 1.433642387
-56.65948486 3.477019072 1.622103691
-56.65932465 3.543493986 1.826284409
-56.62361526 3.588427067 1.978413582
-56.69948578 3.678029299 2.253919601
-56.701828 3.740874767 2.443786621
-56.69264984 3.80176878 2.635397911
-56.69983673 3.84786272 2.772752762
-56.69823074 3.937713861 3.081054688
-56.68943787 3.994019032 3.232446671
-56.70175934 4.066565037 3.43665123
-56.6968689 4.127586365 3.624389648
-56.67801666 4.200985909 3.842693329
-56.68818665 4.263194561 4.029136658
-56.66143799 4.327129364 4.225107193
-56.66326141 4.397530079 4.435102463
-56.66497803 4.450452805 4.591033936
-56.46797943 3.019763947 0.2349477261
-56.47143173 3.077802181 0.417396307
-56.47822189 3.1438272 0.6163542271
-56.48758698 3.213863134 0.8268005848
-56.49546814 3.279529333 1.026465893
-56.49631882 3.344480515 1.227368355
-56.49067307 3.404484034 1.407617569
-56.50077438 3.477284193 1.622665405
-56.5308876 3.541594744 1.823732376
-56.48551941 3.596873522 2.006342888
-56.47415543 3.663194895 2.248222351
-56.47865295 3.721392632 2.413412094
-56.46235275 3.796592712 2.63020134
-56.47782898 3.842457056 2.757038116
-56.46293259 3.948298931 3.081138611
-56.46442795 3.997714281 3.226760864
-56.46459961 4.064235687 3.423902512
-56.47367859 4.13218832 3.630613327
-56.47717285 4.19916153 3.833230972
-56.47651291 4.262717724 4.026315689
-56.47943878 4.324067593 4.211984634
-56.48001862 4.394608021 4.42159462
-56.48382568 4.450351238 4.588102341
-56.31035233 3.019394398 0.2307929248
-56.29309464 3.083626509 0.4368433952
-56.27870941 3.148267031 0.6302886009
-56.27813339 3.21214962 0.8203816414
-56.2755127 3.281081676 1.030966282
-56.26337814 3.349036694 1.243565083
-56.26390076 3.411588907 1.435767174
-56.26672363 3.475932121 1.631328583
-56.26931 3.534788609 1.824682236
-56.27746201 3.599351883 2.025508881
-56.28001022 3.66818428 2.249047279
-56.27923584 3.734506369 2.432341576
-56.28120422 3.799897432 2.628722191
-56.29606628 3.84766078 2.7684021
-56.28331375 3.953969002 3.086414337
-56.29668045 3.999387264 3.227796555
-56.28262329 4.065362453 3.428482056
-56.28614044 4.132445812 3.631565094
-56.27975464 4.202929974 3.843708038
-56.27716446 4.266432285 4.0371418
-56.28397751 4.32702446 4.21963501
-56.2706604 4.398818493 4.432592392
-56.28343964 4.451770782 4.591640472
-56.06241608 3.018430948 0.2249647081
-56.06872177 3.083509207 0.4322575331
-56.07509232 3.14834857 0.6306152344
-56.08056641 3.216504574 0.8304440975
-56.07774734 3.280930758 1.028680325
-56.08069611 3.347652674 1.238843918
-56.08090973 3.406330109 1.423689365
-56.08546066 3.473551035 1.616644859
-56.08115768 3.537302494 1.817030907
-56.08770752 3.601007462 2.012218475
-56.09938812 3.679109573 2.263362885
-56.08895874 3.736522436 2.425361633
-56.08220673 3.79918623 2.616156578
-56.08046341 3.852623463 2.772050858
-56.0921402 3.951921463 3.080617905
-56.08397293 3.998693943 3.223831177
-56.08607483 4.063581944 3.422739029
-56.09072113 4.129552364 3.624938965
-56.08280182 4.19701004 3.826494217
-56.08129883 4.260674953 4.020702362
-56.07894897 4.329383373 4.226125717
-56.0782814 4.395848751 4.421510696
-56.08420563 4.451394081 4.586370468
-55.88172913 3.019330502 0.225151509
-55.8833313 3.082466125 0.4260885715
-55.87978363 3.147963285 0.6257572174
-55.90533447 3.213559389 0.8233094215
-55.89983368 3.280398846 1.026654243
-55.90216064 3.345465899 1.235190868
-55.90591812 3.404500008 1.425993443
-55.8864975 3.474005222 1.624197006
-55.88431931 3.538566589 1.821149826
-55.89069748 3.605620384 2.025422096
-55.89003754 3.678559303 2.254357338
-55.88758087 3.736347437 2.428015709
-55.86511993 3.803910732 2.633896828
-55.88072205 3.854580641 2.783124924
-55.8662796 3.954614878 3.092515945
-55.872715 3.998772621 3.224758148
-55.87516022 4.066301346 3.433677673
-55.88288116 4.130214691 3.629369736
-55.88539124 4.198500633 3.833028793
-55.87981033 4.264257908 4.028297424
-55.87815475 4.32941103 4.224317551
-55.8758812 4.399430752 4.428649902
-55.88296127 4.453505516 4.590761185
-55.70591354 3.026171207 0.2456821948
-55.66824722 3.080574036 0.4205547571
-55.64923859 3.147564888 0.6289527416
-55.65765381 3.212465048 0.8225643635
-55.67404556 3.281499624 1.031306744
-55.66718292 3.344913721 1.229966164
-55.68766403 3.408515692 1.424634933
-55.70585251 3.475705624 1.623657227
-55.69261551 3.539185762 1.818627357
-55.67936325 3.610978842 2.044167519
-55.63451385 3.684703112 2.26663208
-55.69105148 3.739269733 2.440463066
-55.70722961 3.802843809 2.632307053
-55.69562149 3.851408005 2.777650833
-55.69446945 3.957247972 3.100421906
-55.68760681 4.000865459 3.230293274
-55.68238831 4.065886497 3.432193756
-55.68038559 4.129419804 3.629339218
-55.68947983 4.199104309 3.835172653
-55.67736435 4.264509678 4.031572342
-55.68136215 4.330587387 4.226640701
-55.68819046 4.39934206 4.430908203
-55.68193817 4.449733257 4.579708099
-55.48587036 3.021631718 0.2281540185
-55.48340607 3.08327961 0.4235236645
-55.48070908 3.146874428 0.6217463017
-55.46901703 3.207702398 0.8105254173
-55.51399612 3.273334265 1.011000633
-55.53668213 3.341872454 1.223385334
-55.4905777 3.412292719 1.442581177
-55.47208405 3.474117517 1.624437332
-55.46670151 3.540579081 1.824238777
-55.47454071 3.599706411 2.006871223
-55.49901199 3.684159517 2.26803112
-55.49064636 3.7408638 2.438913345
-55.47924805 3.802706242 2.627459526
-55.4782486 3.853312731 2.782505989
-55.49160004 3.955222368 3.095821381
-55.48293686 3.998426914 3.225734711
-55.47716141 4.06138134 3.417230606
-55.48503113 4.129654884 3.625211716
-55.48445129 4.196981907 3.829467773
-55.47835541 4.259903431 4.01924324
-55.48379517 4.327418327 4.221218109
-55.4802475 4.399163723 4.430250168
-55.48729324 4.453489304 4.585222244
-55.27762604 3.018644333 0.2229924947
-55.29094315 3.080293417 0.4192149639
-55.3026886 3.145671606 0.6212208271
-55.29724884 3.211407185 0.8236386776
-55.24763107 3.265014648 0.9959592819
-55.26171875 3.346940994 1.234865665
-55.27827835 3.413491249 1.440220356
-55.28108978 3.473884583 1.624651909
-55.27216339 3.539274216 1.825807571
-55.27933884 3.598187685 2.005170822
-55.28306198 3.681742191 2.263936043
-55.28134918 3.739389181 2.440371513
-55.28449631 3.801341772 2.627156258
-55.28196335 3.851074457 2.779099464
-55.28342438 3.952145815 3.088258743
-55.27393723 3.996284008 3.221761703
-55.28566742 4.061610222 3.422592163
-55.27874756 4.128945351 3.627138138
-55.28282166 4.19758749 3.834129333
-55.27816772 4.259144306 4.020223618
-55.28487015 4.329207897 4.22445488
-55.27095413 4.397459507 4.424711227
-55.28135681 4.453715801 4.589174271
-64.26394653 3.029141903 0.2127908021
-64.27593231 3.090735674 0.4019902945
-64.26824951 3.153270721 0.5943393707
-64.27378845 3.217846394 0.7941610813
-64.2624054 3.28410697 1.000178814
-64.26586914 3.345529318 1.191568851
-64.28677368 3.415712357 1.405620098
-64.31671143 3.478070974 1.597120285
-64.31776428 3.542622566 1.800255775
-64.30157471 3.601877213 1.986486435
-64.271698 3.651221275 2.163173676
-64.31005859 3.74286294 2.424723625
-64.295578 3.805887461 2.615114212
-64.27896118 3.848010063 2.744360924
-64.27644348 3.955152988 3.067169189
-64.28146362 4.001169205 3.209253311
-64.27988434 4.066730499 3.407737732
-64.28717804 4.128761292 3.595312119
-64.28276062 4.199615955 3.809038162
-64.28129578 4.26271677 3.997922897
-64.27404785 4.326976776 4.194976807
-64.27864075 4.401509762 4.420354843
-64.30020142 4.446286201 4.556968689
-55.09138489 3.023058891 0.2404477596
-55.0878067 3.082056761 0.4305214882
-55.08888245 3.142682791 0.6188406944
-55.06381989 3.215593576 0.8364582062
-55.0772171 3.279009104 1.029653072
-55.08219528 3.342009306 1.221817493
-55.07939911 3.410322428 1.428991795
-55.07976151 3.472912788 1.623316765
-55.08699036 3.542234659 1.837015152
-55.08277893 3.60004425 2.013991356
-55.07684326 3.683674812 2.271209717
-55.07527542 3.737838984 2.440171242
-55.08181 3.801031113 2.627548218
-55.07981873 3.851052284 2.778231621
-55.083004 3.954145193 3.093915939
-55.08719635 4.000348568 3.232627869
-55.08521271 4.063013554 3.426990509
-55.08636856 4.126627445 3.61987114
-55.08638763 4.199725628 3.837465286
-55.08062744 4.264175892 4.031627655
-55.07828903 4.329829693 4.224973679
-55.08079529 4.399652004 4.431354523
-55.0786972 4.453434944 4.589355469
-54.86405945 3.020590782 0.2356112599
-54.87257767 3.083612442 0.4353377819
-54.89519882 3.147874117 0.6361095905
-54.88967133 3.212031126 0.8312966824
-54.88399124 3.280848503 1.034335613
-54.87672043 3.345528126 1.233981609
-54.87705231 3.408833027 1.426077366
-54.8787117 3.471131563 1.618288994
-54.87967682 3.536102057 1.82207489
-54.90213394 3.598829269 2.013363838
-54.88726807 3.680927992 2.262420654
-54.88406754 3.737844229 2.437696457
-54.89151382 3.802133799 2.629006386
-54.88505936 3.853491306 2.780991554
-54.88000107 3.951902151 3.089956284
-54.88367844 4.000598431 3.233158112
-54.88442612 4.065057278 3.429895401
-54.88398743 4.132080078 3.632436752
-54.88601685 4.201317787 3.840867996
-54.88435364 4.265204906 4.033222198
-54.8794136 4.331274509 4.229476929
-54.88857651 4.397929668 4.426671982
-54.88693619 4.45470953 4.594463348
-54.67633438 3.014415503 0.2220681161
-54.67250443 3.079589844 0.4251189232
-54.67884445 3.146618605 0.6309525967
-54.68062592 3.212873459 0.8343319893
-54.68370438 3.278438807 1.028275967
-54.6861763 3.344498158 1.230588913
-54.69604492 3.409613848 1.429318428
-54.68968964 3.472722292 1.622171402
-54.68243027 3.535405636 1.81972599
-54.67546082 3.586409569 1.983891487
-54.68367004 3.682535648 2.267279625
-54.67506409 3.736696005 2.43029213
-54.67926025 3.802294016 2.626779556
-54.68119812 3.855271578 2.786980629
-54.68109894 3.952952147 3.09131813
-54.68124771 3.999621868 3.23235321
-54.67520905 4.065254211 3.431150436
-54.68711853 4.129989624 3.627019882
-54.68263626 4.198126793 3.832670212
-54.68405151 4.263663292 4.029169083
-54.68389893 4.329373837 4.224588394
-54.68441391 4.397901058 4.427507401
-54.68774033 4.453640461 4.592121124
-54.48047638 3.014004946 0.228658855
-54.47996521 3.079140425 0.4277279377
-54.49076843 3.144789219 0.6268820763
-54.47305298 3.210577488 0.8238501549
-54.48159409 3.275182724 1.019272327
-54.47258377 3.340480804 1.225389004
-54.48786163 3.409368992 1.430202007
-54.47418594 3.474647045 1.6285429
-54.49725342 3.540979624 1.83202076
-54.47455597 3.587587595 1.993244171
-54.49045181 3.683133841 2.271244049
-54.48447418 3.735821724 2.429153442
-54.48679352 3.802649498 2.6329813
-54.48025894 3.852924824 2.777907372
-54.47783279 3.954395294 3.096431732
-54.48266602 3.997234583 3.224477768
-54.48199463 4.064848423 3.430107117
-54.47982407 4.126995087 3.623031616
-54.47727966 4.198055267 3.834037781
-54.47784424 4.261888504 4.026222229
-54.48031235 4.331306458 4.230119705
-54.47771835 4.397604942 4.427444458
-54.49446869 4.454603195 4.594675064
-54.29008484 3.014876842 0.2325848937
-54.27417374 3.079945564 0.430916667
-54.28268433 3.147255182 0.6332924366
-54.28068924 3.215235472 0.8379352093
-54.27506256 3.279249668 1.034879208
-54.28436661 3.34439826 1.236884594
-54.29289627 3.406128645 1.423005581
-54.28674316 3.475216627 1.629547119
-54.27959442 3.539690256 1.831863403
-54.26652908 3.590918541 2.005833626
-54.27135086 3.680696964 2.26300621
-54.28448105 3.734031916 2.426115036
-54.27692032 3.803569794 2.638189316
-54.27471924 3.847023487 2.772054672
-54.29268646 3.955209494 3.100179672
-54.29553604 3.997618675 3.23320961
-54.28956985 4.067245483 3.440689087
-54.28267288 4.130144119 3.631032944
-54.28232193 4.199336529 3.838373184
-54.27597046 4.262126446 4.027462006
-54.28577423 4.33289957 4.236009598
-54.29007339 4.398032188 4.428461075
-54.30628967 4.452165604 4.591106415
-54.0851593 3.015491009 0.2332272977
-54.08591843 3.077218294 0.429233551
-54.10041428 3.143688917 0.6248266697
-54.09243011 3.212694645 0.8319063187
-54.08795547 3.273014545 1.016139984
-54.08070374 3.342728615 1.235470295
-54.07585907 3.407546043 1.433592796
-54.08485031 3.473282337 1.620804787
-54.07831573 3.541009665 1.830223083
-54.07739639 3.601593494 2.013736725
-54.09395218 3.677607059 2.249696732
-54.08953476 3.739537239 2.439202309
-54.08182144 3.802406311 2.631494522
-54.09861374 3.849997997 2.777365685
-54.09248352 3.95672965 3.102136612
-54.09868622 3.995686769 3.228328705
-54.09785843 4.066627502 3.440496445
-54.09500122 4.128455639 3.629270554
-54.08594513 4.198282242 3.839393616
-54.09169388 4.262489796 4.027158737
-54.0836525 4.330301762 4.232761383
-54.08986282 4.389192104 4.413614273
-54.08618546 4.448140621 4.591598511
-53.8829422 3.019901276 0.244036451
-53.87726593 3.079398394 0.4297019243
-53.87974167 3.142147541 0.6236338615
-53.88703537 3.217354536 0.8456301689
-53.89637756 3.28114152 1.042094231
-53.88870621 3.34255743 1.23632288
-53.88957977 3.406541586 1.429100513
-53.87844849 3.473826408 1.627159119
-53.88628006 3.541201115 1.829395294
-53.88677597 3.605098963 2.029680252
-53.90452576 3.67488265 2.240438461
-53.8855629 3.746867895 2.469537735
-53.88064957 3.806615829 2.64644146
-53.88917542 3.852833748 2.782014847
-53.86396027 3.956605673 3.098466873
-53.85668564 3.996186256 3.230516434
-53.86571884 4.067290783 3.443187714
-53.88251495 4.129787445 3.636184692
-53.8844223 4.197431087 3.841913223
-53.89489365 4.261793613 4.034734726
-53.89411926 4.324802876 4.221862793
-53.87403488 4.393465042 4.431678772
-53.89105988 4.448248386 4.596549988
-53.68439484 3.021670103 0.2515288889
-53.67785645 3.080377817 0.432103157
-53.6781044 3.14507246 0.6262807846
-53.69377136 3.213311911 0.832010746
-53.69358063 3.278961182 1.034447193
-53.68992615 3.339049578 1.227622986
-53.69129562 3.406758785 1.438125134
-53.68423843 3.47808218 1.642459869
-53.70391846 3.540419102 1.833955765
-53.70920944 3.597385645 2.0079422
-53.61616898 3.691124916 2.303858757
-53.66474533 3.74463439 2.464307785
-53.68098831 3.802099228 2.636053085
-53.68101883 3.852185249 2.784520149
-53.6803093 3.956576347 3.105367661
-53.6738472 3.993964672 3.221927643
-53.6954689 4.067993164 3.443044662
-53.6954155 4.132662773 3.640792847
-53.67749023 4.200951099 3.84400177
-53.67431259 4.258907318 4.026224136
-53.68035507 4.327536583 4.23390007
-53.68587494 4.390572548 4.426088333
-53.68148041 4.450520992 4.601129532
-53.49178314 3.018217087 0.2342368513
-53.45380402 3.081566334 0.4295500517
-53.46615219 3.147974014 0.6329262257
-53.48479843 3.21262455 0.8301172256
-53.49484253 3.277389288 1.029481888
-53.4847641 3.341710806 1.230979919
-53.4865036 3.40614295 1.429116249
-53.48232269 3.469029427 1.616819382
-53.44213486 3.528260469 1.799531937
-53.45634842 3.59279418 1.999799728
-53.44709778 3.681329012 2.26223278
-53.48293686 3.738968611 2.444295883
-53.50328827 3.79988265 2.62760067
-53.48823547 3.850865364 2.780514717
-53.49330521 3.956738949 3.105419159
-53.48029327 3.998891592 3.231733322
-53.46916962 4.065290451 3.430099487
-53.49172974 4.129924297 3.638185501
-53.48768997 4.199137211 3.837779999
-53.49433517 4.253033161 4.003751755
-53.49497986 4.324203014 4.222606659
-53.50687408 4.392573357 4.431423187
-53.48035812 4.453680515 4.610816956
-53.28111267 3.016254663 0.2269062549
-53.28948975 3.080139399 0.4277874231
-53.28539276 3.149380445 0.6398758888
-53.2907753 3.215301275 0.8399753571
-53.29894638 3.277814865 1.03204155
-53.31639862 3.332490206 1.203857422
-53.27653885 3.404111624 1.442605972
-53.29128647 3.470692635 1.648541451
-53.26735687 3.538617373 1.841430664
-53.2791481 3.584275723 1.975420952
-53.27831268 3.674585581 2.25262928
-53.26956558 3.735600233 2.441979408
-53.28230286 3.797964096 2.632813454
-53.2749939 3.844853163 2.783286095
-53.29772949 3.955755711 3.110561371
-53.28929138 3.999911547 3.239253998
-53.29431915 4.0661726 3.438531876
-53.28428268 4.124891281 3.621152878
-53.29619217 4.198257446 3.842554092
-53.29133224 4.250952244 4.003622055
-53.2591362 4.327404976 4.25110817
-53.28659058 4.377729893 4.400701523
-53.28765488 4.454225063 4.61447525
-64.0816803 3.018211365 0.1806944758
-64.07666016 3.07814908 0.369052887
-64.0809021 3.141520739 0.5647718906
-64.08078003 3.208993673 0.7708523273
-64.09329224 3.273900032 0.9703841209
-64.09594727 3.338694811 1.171414852
-64.07859802 3.404410601 1.372320652
-64.06388855 3.46249485 1.544681549
-64.04708862 3.536821842 1.773459435
-64.06777954 3.591992855 1.954485893
-64.03729248 3.665167332 2.173242569
-64.05184937 3.731363535 2.380865097
-64.05203247 3.793056726 2.571949959
-64.05583954 3.844527483 2.734904289
-64.05471802 3.94393611 3.023469925
-64.07980347 3.988364458 3.172670364
-64.07622528 4.051591873 3.36844635
-64.08583069 4.120568752 3.575878143
-64.09275818 4.186694145 3.77557373
-64.08171082 4.250026226 3.964038849
-64.08085632 4.320950031 4.176467896
-64.08561707 4.381968975 4.359220505
-64.08969116 4.4434762 4.544326782
-53.08330536 3.018275976 0.2343747169
-53.07752991 3.080963373 0.4312061071
-53.08454132 3.149034023 0.641327858
-53.10105515 3.206948042 0.8179721832
-53.14710999 3.270490408 1.020870686
-53.08301926 3.338677168 1.247079849
-53.05116272 3.412011385 1.465111732
-53.08353806 3.472033739 1.645804405
-53.07842255 3.536371469 1.838580132
-53.0976181 3.584628105 1.983944893
-53.0835495 3.676598787 2.262665749
-53.08733749 3.734216213 2.442382813
-53.09760666 3.802669525 2.645206451
-53.08852386 3.848992109 2.784752846
-53.06645584 3.956757545 3.102592468
-53.0675354 3.998499155 3.233123779
-53.08426666 4.067522049 3.449525833
-53.07845306 4.128523827 3.63741684
-53.08653259 4.201265335 3.855039597
-53.07761002 4.257282734 4.022062302
-53.08769608 4.330315113 4.246217728
-53.09557343 4.37784338 4.422246933
-53.10616302 4.448723316 4.619474411
-52.8816185 3.015892982 0.2289553583
-52.88492584 3.080287933 0.4332997799
-52.897995 3.138764143 0.6167292595
-52.88639832 3.192947149 0.7841665745
-52.81110382 3.298314333 1.098203659
-52.86303329 3.345502853 1.248996258
-52.88491058 3.404754877 1.430202961
-52.87683487 3.470097065 1.631986618
-52.87965393 3.533162832 1.830598831
-52.90169525 3.582829952 1.981905937
-52.88203049 3.673830748 2.252981186
-52.87264633 3.737090111 2.448476791
-52.87714005 3.79660964 2.626267433
-52.89510345 3.845018387 2.77560997
-52.88482285 3.952615499 3.099039078
-52.87973404 3.994419575 3.228916168
-52.89670563 4.064751625 3.435886383
-52.89265823 4.126182079 3.624053955
-52.88634491 4.194825649 3.828525543
-52.89587402 4.259736538 4.030488968
