x,y,z
-61.4782753,-0.6566076279,0.105122298
-61.46967316,-0.45713520049999995,0.1094025001
-61.48383713,-0.2257995605,0.1121466681
-61.51107407,-0.02396583557,0.12318713220000001
-61.46967316,0.1376781464,0.09644083679
-61.47916031,0.33981513979999994,0.10597545650000001
-61.48616409,0.5279979706,0.10746841130000001
-61.44138718,0.7353248595999999,0.1036285684
-61.48527908,0.9447307587,0.1037042066
-61.5028801,1.147741318,0.09355142712999999
-61.4580307,1.352516174,0.09986999631000001
-61.47991943,1.555353165,0.11115428810000001
-61.47567368,1.76506424,0.09841071813999999
-61.47621155,1.971216202,0.09617333114
-61.50031281,2.132188797,0.09855070710000001
-61.48618317,2.352996826,0.08863776922000001
-61.45254898,2.566074371,0.09032307565
-61.48146439,2.712947845,0.08828437328
-61.27862549,-3.2857949730000002,0.11465714130000002
-61.2734375,-3.073550224,0.1130676419
-61.28223038,-2.876509666,0.1171479896
-61.25134277,-2.677634239,0.115423739
-61.28918076,-2.476629257,0.1194279939
-61.26734543,-2.264590263,0.11827706550000001
-61.27265167,-2.043357372,0.1154257059
-61.27917099,-1.8456053730000002,0.1145649925
-61.27187347,-1.6428813930000001,0.12215538320000001
-61.26377869,-1.4416742319999998,0.1143214256
-61.28429413,-1.279626846,0.11559999730000001
-61.26850128,-1.058422089,0.11614570769999999
-61.25109863,-0.8755350113,0.1039549932
-61.28565979,-0.6707162857,0.1179056168
-61.31158066,-0.46075916289999996,0.11189188060000001
-61.29488373,-0.27293396,0.1091933325
-61.27885056,-0.05131721497,0.1070642844
-61.27344513,0.14406394960000002,0.1003473327
-61.2599411,0.3100013733,0.1094623134
-61.26938629,0.5091114044,0.10198721289999998
-61.26834106,0.7535457611,0.0996433273
-61.311073300000004,0.9861583709999999,0.09909499437000001
-61.25205612,1.139368057,0.11072076859999999
-61.2578125,1.359010696,0.10082817820000001
-61.28437042,1.535879135,0.09049208462000001
-61.28398514,1.751428604,0.10470750179999999
-61.28200912,1.947330475,0.1034138501
-61.28290939,2.138849258,0.08760143071000001
-61.29454803,2.309139252,0.09824907779999999
-61.269104000000006,2.524776459,0.08942142874
-61.26936722,2.747470856,0.08719082922
-61.08885193,-3.2562086580000003,0.11529184880000001
-61.05628586,-3.035306931,0.11402142789999999
-61.06099319,-2.854056835,0.12872691449999998
-61.0711174,-2.672475576,0.1155085638
-61.07255936,-2.461121321,0.1210214868
-61.06623077,-2.240362167,0.12045881900000001
-61.076904299999995,-2.043224335,0.1145586669
-61.06906509,-1.834760189,0.1129294708
-61.07555389,-1.628941536,0.1148549989
-61.06249619,-1.3992156980000001,0.11688461900000001
-61.10089111,-1.220598221,0.1229142845
-61.07040405,-1.1122751240000002,0.1114041582
-61.07686615,-0.8862972259999999,0.1108652875
-61.08029175,-0.6441669464,0.1121354923
-61.05887604,-0.44619750979999995,0.1078139991
-61.07019806,-0.2717685699,0.11612857130000001
-61.08815002,-0.07320976257,0.1145946681
-61.05883789,0.1509399414,0.1069430634
-61.06496811,0.3404788971,0.1080278531
-61.0586853,0.5709667206,0.1012858301
-61.06832123,0.7688179016,0.10417500140000001
-61.11067963,0.9627990723000001,0.09892200678999999
-61.07001877,1.153224945,0.1087564677
-61.05722809,1.3518867490000002,0.09125921875
-61.08004379,1.539627075,0.09653499722000002
-61.06127167,1.7497711180000002,0.10978250210000001
-61.05600739,1.9680061340000001,0.10104570539999999
-61.09267426,2.12521553,0.08837999402999999
-61.06838226,2.35928154,0.08699867129000001
-61.08232498,2.535316467,0.09145732969
-61.06619263,2.738807678,0.09260823577999999
-60.88445663,-3.236944675,0.10717263070000001
-60.87305069,-3.040315628,0.112453334
-60.86152649,-2.856851578,0.12005571279999999
-60.87937164,-2.679671764,0.1228364184
-60.86896515,-2.463454723,0.1180192828
-60.88772583,-2.293179035,0.118148461
-60.87913895,-2.076154232,0.1174605563
-60.89421844,-1.851175785,0.1174153388
-60.88172531,-1.633392334,0.11982499810000001
-60.89460754,-1.438492775,0.1185818166
-60.84957123,-1.2418069840000001,0.1079443693
-60.867679599999995,-1.082134247,0.11845624449999999
-60.87730408,-0.8655424118,0.1111921072
-60.88415909,-0.6473226546999999,0.10245570539999999
-60.86554718,-0.46030330659999996,0.11104714130000001
-60.87697601,-0.24890995030000002,0.1147099882
-60.87922668,-0.043794631960000004,0.12155363710000001
-60.87493896,0.1495800018,0.09907999634999999
-60.88855743,0.3622360229,0.10681799800000001
-60.85158539,0.5424823760999999,0.1096939966
-60.87719727,0.7565517426,0.1097500026
-60.88076782,0.9401397705,0.1076719984
-60.86698532,1.124990463,0.1005222127
-60.88528824,1.35008049,0.10040110349999999
-60.88362122,1.5623474119999998,0.09388907999
-60.87481308,1.716236115,0.09370099752999998
-60.90300751,1.9396820069999998,0.101180546
-60.87070465,2.146717072,0.1016942784
-60.86523056,2.338886261,0.09391199052000002
-60.87682343,2.542861938,0.09033785015000001
-60.86970139,2.761512756,0.09362832457
-60.66637421,-3.250980377,0.1019643471
-60.65849686,-3.038637161,0.1154799908
-60.67584229,-2.838755846,0.11219333109999999
-60.65638351,-2.655222654,0.1262906194
-60.680206299999995,-2.4852261540000002,0.1173257902
-60.67317581,-2.291950941,0.12257226560000001
-60.67769241,-2.094382286,0.11789315189999999
-60.69416809,-1.887744427,0.11781713369999999
-60.68286896,-1.664293766,0.11764646320000001
-60.68800735,-1.454379082,0.1204559058
-60.68012619,-1.2474060059999998,0.1166112423
-60.69955444,-1.044119835,0.1150166541
-60.66610336,-0.8126230240000001,0.11596249789999999
-60.67299652,-0.6374778748,0.11062727119999999
-60.68241882,-0.4464235306,0.11369562150000001
-60.66556168,-0.2297754288,0.1093423516
-60.67541504,-0.03442382813,0.1254781932
-60.67721939,0.1676578522,0.09865416586
-60.67030334,0.34598350520000004,0.10277332369999999
-60.68091965,0.5196628571,0.11578399689999999
-60.66115189,0.7300148009999999,0.09813333302999999
-60.66767883,0.9212245941,0.10401499269999999
-60.69705963,1.120880127,0.09746909142000001
-60.68575668,1.3272686000000002,0.09731124341
-60.70985031,1.548923492,0.09670455009
-60.68379593,1.736562729,0.09209332615
-60.70449448,1.9537353519999998,0.1040657833
-60.65429688,2.150585175,0.09733948857000001
-60.67911529999999,2.344970703,0.09312881528999999
-60.69513321,2.543266296,0.09464649856
-60.69290543,2.736602783,0.09453666210000002
-60.46549606,-3.248278618,0.1188379973
-60.47071457,-3.058432102,0.1116641164
-60.48203278,-2.819907427,0.1233883277
-60.488605500000006,-2.622154713,0.1172294989
-60.46452713,-2.423779011,0.11715363710000001
-60.47809982,-2.258889914,0.1119073257
-60.47499084,-2.071074486,0.1206347048
-60.49054718,-1.875600815,0.1177770495
-60.45091248,-1.660981655,0.1194470599
-60.48544312,-1.454068184,0.1121223792
-60.47787094,-1.248421669,0.1177782267
-60.47681046,-1.035698891,0.11566561460000001
-60.48206711,-0.8388805389,0.1051407754
-60.48403931,-0.6379261017,0.10564210269999999
-60.50582504,-0.4403076172,0.1119581237
-60.48614502,-0.24398899079999997,0.10662443939999999
-60.49078369,-0.05953216552999999,0.12701998650000002
-60.47331238,0.1519527435,0.09480705112
-60.5132103,0.3425579071,0.09743142127999999
-60.483284,0.5476589203,0.1065029874
-60.50967026,0.7198371887,0.1031544358
-60.47777939,0.9244117737,0.09428498894
-60.48761749,1.1622753140000002,0.08608666062
-60.50566864,1.370798111,0.09603999554999999
-60.48412704,1.537530899,0.08911667019
-60.50193787,1.747003555,0.08746498822999998
-60.506359100000005,1.962667465,0.08798287063999999
-60.49387741,2.1240463259999998,0.08977454155999999
-60.44594574,2.377168655,0.08154123276
-60.46287537,2.543701172,0.08199142665
-60.51066208,2.759952545,0.08558066934
-60.28841782,-3.255301476,0.11862571539999998
-60.29312134,-3.0362868310000004,0.1235562414
-60.31718063,-2.83916378,0.1230570003
-60.31567001,-2.6660437580000003,0.11937099699999999
-60.28953171,-2.481891632,0.1294
-60.28586197,-2.238591194,0.1178822219
-60.26029587,-2.065558434,0.1377725005
-60.33713531,-1.9239468569999998,0.115324989
-60.28062057,-1.710790634,0.1263337433
-60.3024559,-1.437420845,0.13028363880000002
-60.28075027,-1.227172852,0.1223616526
-60.32255936,-1.077829361,0.12172000109999999
-60.32641602,-0.8683700562000001,0.1145362332
-60.27584457,-0.6701402664,0.10993399470000001
-60.327087399999996,-0.49234962460000004,0.09012000263
-60.35041809,-0.2736330032,0.08883999287999998
-60.30105591,-0.8654212952,0.08586999028999999
-60.32289886,-0.6974906920999999,0.08692499995
-60.34029770000001,-0.5170898438,0.08668498695
-60.33316422,-0.31233024600000003,0.08505667001
-60.32520676,-0.1387233734,0.08442750572999999
-60.31826782,0.1120624542,0.08314142376
-60.30192947,0.37526321409999996,0.08687248825999999
-60.29847717,0.5486145020000001,0.08862332255000001
-60.28563309,0.7286777496,0.08334799856000001
-60.31244659,0.922000885,0.08154498041
-60.32445145,1.124994278,0.08302444219999999
-60.29929352,1.374509811,0.08207888901
-60.30787277,1.5659141540000001,0.08277461677999999
-60.28422165,1.753410339,0.08412856609
-60.27845383,1.997356415,0.09464791417000001
-60.07793427,-3.250326872,0.11757526550000001
-60.06231689,-3.0650050639999997,0.1245666668
-60.06887054,-2.859148264,0.1246586666
-60.05530167,-2.654076576,0.1269362569
-60.07497025,-2.42114377,0.117095381
-60.07864761,-2.246543646,0.1265140027
-60.05502701,-2.040196419,0.1322855353
-60.06027222,-1.849684238,0.12417554859999999
-60.0475235,-1.67634058,0.1197289899
-60.06869888,-1.460085869,0.1220706701
-60.08448029,-1.28222847,0.1223493293
-60.07725143,-1.05871582,0.131129086
-60.03515625,-0.8835639954000001,0.1210083291
-60.04683685,-0.6490774155,0.12126333269999999
-60.04746628,-0.48399543759999997,0.1182562485
-60.05913925,-0.2557897568,0.1158314273
-60.03334808,-0.05346298218,0.11487000439999999
-60.04686737,0.1235141754,0.1018249989
-60.01677704,0.3103103638,0.1032066718
-60.04642105,0.48682403560000004,0.09716999530999999
-60.02340317,0.7129936218,0.09925665706
-60.03645325,0.9293746948,0.09627857059
-60.02291489,1.16362381,0.10500749949999999
-60.0867157,1.339725494,0.09843299537999999
-60.02952576,1.536262512,0.10270271449999999
-60.02739716,1.737361908,0.10226899390000001
-60.02031708,1.955253601,0.09313749522
-60.07642365,2.16607666,0.08784727007000001
-60.03522491,2.3034172059999998,0.09747249632999999
-60.05519104,2.526966095,0.0923705548
-60.07237625,2.7551651,0.09293808787999999
-59.85505676,-3.249209881,0.1144786626
-59.89513397,-3.078743458,0.1187515035
-59.87220383,-2.8682518010000004,0.12010646609999999
-59.88381195,-2.6701550480000003,0.12295059109999999
-59.87152863,-2.452015638,0.1214013323
-59.85652924,-2.248334646,0.11778523029999999
-59.87461472,-2.036863327,0.1261646152
-59.90397263,-1.8685131069999998,0.1224580035
-59.88058472,-1.676132679,0.1194609478
-59.88286972,-1.4601402280000002,0.1124578863
-59.87485504,-1.255754471,0.1122846082
-59.86791611,-1.086099625,0.11648562550000001
-59.8796463,-0.8739500045999999,0.1226579919
-59.87501907,-0.683883667,0.1112730652
-59.88301468,-0.47701454159999995,0.11268882449999999
-59.87908173,-0.2678642273,0.122174114
-59.87593842,-0.06502151489,0.115232937
-59.8781929,0.1463127136,0.1078399941
-59.87381744,0.3174819946,0.11151000109999999
-59.89141846,0.5273265839,0.1087178513
-59.87853241,0.7250823975,0.10905940830000001
-59.87924957,0.9247875214,0.1028149948
-59.85774231,1.143445969,0.11023683849999999
-59.87791824,1.3544845580000002,0.09839562327
-59.87506485,1.51871109,0.1016269177
-59.87143707,1.723840714,0.11293533439999999
-59.88221359,1.954387665,0.09631789476
-59.87507248,2.136453629,0.09815187752
-59.867679599999995,2.314369202,0.09424500167000001
-59.88009644,2.519618988,0.1008115709
-59.88680267,2.7091217039999997,0.0974368304
-59.68908691,-3.261726856,0.11566362529999999
-59.65189362,-3.064306259,0.11856071650000001
-59.65831375,-2.871085167,0.11077499390000001
-59.69548035,-2.658633709,0.1228479967
-59.69283295,-2.461438894,0.1192154959
-59.67899323,-2.263736963,0.1177290902
-59.69134521,-2.039907455,0.1218177676
-59.65741729999999,-1.8149986269999998,0.12280692160000001
-59.69369888,-1.682666302,0.11539332570000001
-59.67657471,-1.479146004,0.12186315660000001
-59.67887497,-1.288563728,0.11618000269999999
-59.67700958,-1.063627243,0.12244749810000001
-59.68960571,-0.8696966170999999,0.1166199967
-59.67217636,-0.6427516937,0.1114138439
-59.68026352,-0.45550060270000003,0.11407472939999999
-59.66773605,-0.2283878326,0.1188394651
-59.70505905,-0.03995132446000001,0.1253559887
-59.676651,0.1254253387,0.10652082410000001
-59.68606949,0.3254852295,0.10393630710000001
-59.68475723,0.5205516815,0.10494300720000001
-59.66864777,0.7164611815999999,0.10940499599999999
-59.69081879,0.9286117554000001,0.09622266144
-59.66712189,1.145456314,0.10611154140000001
-59.68446732,1.346824646,0.09959154576
-59.66973877,1.547235489,0.10185199980000001
-59.70330048,1.724451065,0.1023711115
-59.67208481,1.949115753,0.09486076235999999
-59.66686249,2.168792725,0.09392750263
-59.67552948,2.328237534,0.09841500222999999
-59.69473267,2.521419525,0.09583000094
-59.67321396,2.7408523560000004,0.09865923226
-59.4969101,-3.256113529,0.1196350008
-59.49305344,-3.072936535,0.1160700023
-59.47122192,-2.882353544,0.1174033359
-59.4631958,-2.654946089,0.1200946644
-59.48504639,-2.46790123,0.1136277691
-59.48695374,-2.29069829,0.11820071189999999
-59.48314285,-2.0421948430000003,0.1170639992
-59.46057892,-1.833518982,0.1219326705
-59.47480392,-1.6787672040000001,0.11940667029999999
-59.47798538,-1.5001659390000002,0.1226841733
-59.47113037,-1.299016953,0.1180600077
-59.48104858,-1.094441414,0.1160139963
-59.48216248,-0.8679361343,0.1128533259
-59.46614456,-0.6637954711999999,0.10725713519999999
-59.48000336,-0.44911193850000003,0.11911764
-59.45502853,-0.2124567032,0.115619272
-59.47882843,-0.04015731812,0.13089667259999999
-59.46602631,0.1668243408,0.1069729999
-59.46277237,0.3380851746,0.1143874973
-59.46649933,0.5506649017,0.10759307439999999
-59.46886826,0.7638263702,0.112929225
-59.44561005,0.9482498169,0.1031883284
-59.48940277,1.1300945279999999,0.1094519868
-59.47888184,1.345436096,0.09605474025
-59.47873688,1.5351333619999998,0.1034119949
-59.49394989,1.738031387,0.10466571150000001
-59.46898651,1.955228806,0.09896399825999999
-59.47872162,2.1560077669999997,0.09955570847
-59.48145294,2.370189667,0.09793800116000001
-59.48168182,2.560058594,0.09891408682
-59.48062515,2.7707099910000004,0.10308059300000001
-59.27765274,-3.2703881260000003,0.1168770567
-59.26248932,-3.0567317010000004,0.1229363158
-59.27727127,-2.878108978,0.1141409501
-59.28595734,-2.6559977530000003,0.1209899932
-59.25809097,-2.468727827,0.1148656234
-59.28139496,-2.281638384,0.11466731880000001
-59.2654686,-2.050684929,0.12012266369999999
-59.27342224,-1.856356621,0.1197274998
-59.26217651,-1.691569805,0.1180862486
-59.2951889,-1.485375404,0.1240492314
-59.2804451,-1.304992676,0.11674599349999999
-59.29447556,-1.054787636,0.1240878627
-59.27309418,-0.8570756912,0.1074752957
-59.29176331,-0.6497812271,0.1190149933
-59.2678833,-0.4444503784,0.12135561560000001
-59.27522278,-0.25010681149999997,0.1220442876
-59.2841301,-0.02139854431,0.1309337616
-59.28369904,0.1459827423,0.10523071140000001
-59.29234314,0.3535270691,0.1060658768
-59.29161835,0.5701007843,0.1126049981
-59.28745651,0.7714481354,0.1146709025
-59.27970886,0.9426994324,0.1141590849
-59.27809906,1.11652565,0.10711285470000001
-59.27184296,1.338266373,0.1055389941
-59.272140500000006,1.54492569,0.09862124175
-59.28748703,1.7304172519999999,0.104856424
-59.28105927,1.944658279,0.1067878902
-59.29498672,2.156028748,0.1007338017
-59.26145935,2.347290039,0.09668590872999999
-59.2600174,2.56445694,0.09394307435
-59.2882309,2.778167725,0.10005428640000001
-64.64480591,-3.2476398939999997,0.1288658828
-64.64842224,-3.026992798,0.1308266521
-64.67614746,-2.836743116,0.11559076609999999
-64.66555023,-2.65005064,0.11242198939999999
-64.70948792,-2.4838016030000003,0.1078755409
-64.69618988,-2.206687927,0.1474966556
-64.65115356,-2.0440134999999997,0.09590999782
-64.66827393,-1.840612411,0.1144033223
-64.68972015,-1.674444199,0.09856362641000001
-64.65475464,-1.4307022090000001,0.09738624841
-64.69589233,-1.255688667,0.1086436361
-64.67573547,-1.0475339890000002,0.09660636634
-64.69603729,-0.8686790466,0.10590999570000001
-64.67378235,-0.6656293869,0.07959000021000001
-64.68854523,-0.4679555893,0.07313583046
-64.68338776,-0.2407007217,0.09787333012
-64.65355682,-0.0580368042,0.1115999818
-64.67218018,0.1583747864,0.08233100176
-64.68283081,0.346075058,0.08018443733
-64.65258789,0.5576896667,0.08587117492999999
-64.66192627,0.7615890503,0.08165817707999999
-64.67919922,0.9263801575,0.08691625297
-64.64759064,1.151529312,0.08605000377000001
-64.65426636,1.319734573,0.103408888
-64.66430664,1.564359665,0.1091524959
-64.65400696,1.7424049380000002,0.11153636130000001
-64.66914368,1.9681301119999999,0.09211856127000001
-64.67460632,2.15747261,0.09732778369999999
-64.64600372,2.374399185,0.1201576889
-64.65503693,2.497207642,0.1116962433
-64.68907166,2.736171722,0.1040939987
-59.09544373,-3.284931898,0.112282224
-59.07354355,-3.071445942,0.1153249964
-59.07044983,-2.8799567219999997,0.1211512461
-59.08189774,-2.660503626,0.1159129515
-59.07244873,-2.494754553,0.125437215
-59.08892059,-2.287851095,0.1241370514
-59.08010864,-2.0401735309999998,0.11645687369999999
-59.08562469,-1.865267754,0.12018066640000001
-59.08565521,-1.6627016069999998,0.12036199869999999
-59.06392288,-1.460425377,0.125090003
-59.06389618,-1.319847107,0.1222836375
-59.07113647,-1.086108208,0.113191247
-59.08979034,-0.8635063170999999,0.10309000310000001
-59.095230099999995,-0.6574382782,0.1198435575
-59.08129883,-0.43611145020000003,0.12101265789999999
-59.09313965,-0.21807861329999997,0.1192535684
-59.11261368,-0.01522827148,0.1314750016
-59.0798111,0.1484718323,0.1083393693
-59.07451629999999,0.36274337770000004,0.1080266684
-59.08802032,0.5308532715,0.1123356
-59.08049774,0.7507648468000001,0.1113535315
-59.06715012,0.9538955687999999,0.1066866741
-59.08632660000001,1.149868011,0.09975299239
-59.09035492,1.3412837979999999,0.10942850259999999
-59.06204987,1.5493621830000002,0.1063730717
-59.07885742,1.7427864069999999,0.10282143210000001
-59.06970215,1.937520981,0.10826216640000001
-59.07250977,2.154800415,0.1004456282
-59.08169937,2.364267349,0.10607749220000001
-59.07197189,2.556224823,0.10189999640000001
-59.08159256,2.7648506160000004,0.10553500060000001
-58.87407684,-3.276281357,0.1201422065
-58.87364960000001,-3.083812475,0.11714444310000001
-58.87028503,-2.888760805,0.11532956359999999
-58.86301804,-2.684069633,0.1209724993
-58.85973358,-2.463363647,0.1207126677
-58.88416672,-2.29341507,0.1181559935
-58.87469482,-2.056529045,0.11942625050000001
-58.863449100000004,-1.863210201,0.1246400028
-58.88454819,-1.6675209999999998,0.11884277310000001
-58.85588837,-1.474600792,0.13039599359999998
-58.86688232,-1.281880379,0.1214323118
-58.88384247,-1.076629639,0.12126769130000001
-58.87997437,-0.8557958603,0.1022166684
-58.88092804,-0.6603965759,0.125466153
-58.87963104,-0.4483070374,0.12143666300000001
-58.87055206,-0.22800254820000002,0.11969785390000001
-58.88883209,-0.024875640869999997,0.1319700032
-58.86992645,0.1460266113,0.11041234429999999
-58.88674545,0.3517723083,0.1077549979
-58.87417603,0.5378475189,0.11282714460000001
-58.88868713,0.7604789734,0.1136093736
-58.87343216,0.9349575043,0.10884075609999999
-58.89744186,1.136547089,0.108010903
-58.89343262,1.347551346,0.1034540981
-58.86585236,1.554193497,0.09991466254
-58.87569809,1.756753922,0.1025563627
-58.851017000000006,1.9658279419999998,0.1148276925
-58.86933136,2.1562690730000003,0.09856473654999999
-58.87635803,2.357603073,0.09834500402
-58.87471008,2.579906464,0.09833808988
-58.88651276,2.752620697,0.1041527316
-58.67984772,-3.283580303,0.1171719953
-58.67851257,-3.070468187,0.1203539968
-58.66260147,-2.877708197,0.11950307339999999
-58.68759155,-2.66412878,0.1199441627
-58.65692902,-2.470466137,0.118010655
-58.67804337,-2.2929887769999997,0.12092469630000001
-58.65514374,-2.064731121,0.1210255474
-58.67058945,-1.8795681,0.1267687529
-58.68973923,-1.670175552,0.1202342734
-58.68862152,-1.451706886,0.1287715286
-58.6882515,-1.316652298,0.1200800017
-58.67026138,-1.101342201,0.1152435243
-58.68401337,-0.8860702515000001,0.1134905815
-58.67472076,-0.6369743347,0.1189553291
-58.67889404,-0.4372701645,0.121749334
-58.652770999999994,-0.2372722626,0.119507499
-58.69380569,-0.036050796510000004,0.1327354461
-58.684696200000005,0.1652622223,0.10618428140000001
-58.67723846,0.34810447689999996,0.11086636039999999
-58.68083191,0.5343875885,0.1180014238
-58.70156097,0.7424125670999999,0.10891400279999999
-58.65257645,0.9252567291,0.11085904390000001
-58.67407608,1.113462448,0.10513125359999999
-58.68347168,1.323884964,0.1138280034
-58.6738205,1.543693542,0.1039994434
-58.68411255,1.736116409,0.1022155434
-58.705642700000006,1.935148239,0.100527145
-58.67549133,2.14786911,0.10493047539999999
-58.703228,2.368793488,0.1019612476
-58.67565155,2.55166626,0.1028266624
-58.67263794,2.739498138,0.1036423519
-58.47389984,-3.283362865,0.1175886616
-58.47322083,-3.09834218,0.114664115
-58.46324158,-2.895765066,0.1226184145
-58.47888947,-2.6718661790000002,0.12331111730000001
-58.48553848,-2.4731307030000003,0.1245452315
-58.487854000000006,-2.2813906669999997,0.1262827665
-58.47003937,-2.053340912,0.1179447398
-58.48072433,-1.87492609,0.125558123
-58.48567963,-1.683112621,0.1186094657
-58.48752594,-1.4774236680000001,0.1327261478
-58.47420883,-1.297991753,0.1230689958
-58.47233963,-1.062683105,0.11736623939999999
-58.47668839,-0.8718347549,0.107412301
-58.4549942,-0.6899290084999999,0.11797562240000001
-58.48446655,-0.4325141907,0.1213099957
-58.45873642,-0.20768547059999998,0.11313691740000001
-58.47940063,-0.03283309937,0.13318333029999999
-58.48845673,0.1563053131,0.10634293410000001
-58.48038864,0.3455429077,0.1148769185
-58.49682617,0.5323486328,0.1197193339
-58.49152374,0.7325115204000001,0.11198899890000001
-58.46878052,0.924823761,0.11599066109999999
-58.46878052,1.1337985990000001,0.10515533390000001
-58.48018646,1.3455028530000002,0.107902728
-58.47433472,1.569725037,0.10587786140000001
-58.47097015,1.75696373,0.1000272185
-58.48265457,1.925014496,0.1034649983
-58.48225403,2.11832428,0.10659347470000001
-58.47881317,2.36574173,0.1051794142
-58.47869873,2.578277588,0.1022083387
-58.47960663,2.7534103389999998,0.1092979982
-58.28063965,-3.293428898,0.12422624980000001
-58.26217651,-3.0542387960000004,0.1218676195
-58.26235199,-2.8621406560000002,0.119166255
-58.27911758,-2.66807127,0.1227166653
-58.29229355,-2.445801258,0.1212477759
-58.27189255,-2.265285492,0.1191558316
-58.26672363,-2.039977551,0.1264705062
-58.26821518,-1.840867043,0.12280133369999999
-58.2758522,-1.6523666380000002,0.11401714380000001
-58.27167511,-1.464785576,0.1287462413
-58.27905273,-1.2682027820000001,0.1234474927
-58.26609802,-1.058786392,0.1243799999
-58.27735901,-0.8682575226000001,0.1193591654
-58.27973557,-0.6554164886,0.1101107076
-58.2948761,-0.4471969604,0.11720865960000001
-58.27101517,-0.22586250309999997,0.1176227778
-58.26609802,-0.02415275574,0.1293354481
-58.27462769,0.1730480194,0.1039583236
-58.27922058,0.3446998596,0.11739584060000001
-58.27616119,0.5274791718,0.1147378907
-58.266326899999996,0.7325592041,0.110986352
-58.27323914,0.9123783112,0.12107356640000001
-58.26374435,1.124866486,0.11342453960000001
-58.27037048,1.3304023740000002,0.10333544759999999
-58.28622437,1.551534653,0.1006211787
-58.29125977,1.7308082580000002,0.1040846184
-58.28904343,1.944133759,0.1048718765
-58.25338745,2.142196655,0.10919590289999999
-58.28140259,2.373443604,0.10248799619999999
-58.27286911,2.5616035459999997,0.09934312105000001
-58.26754379,2.751319885,0.1098042876
-58.07717896,-3.275627375,0.11721708630000001
-58.07074738,-3.077423811,0.1219086349
-58.08554459,-2.844907045,0.12418733539999999
-58.06858444,-2.644084454,0.1254221499
-58.09371948,-2.465314865,0.1253183335
-58.05442047,-2.281758785,0.1281152964
-58.1103363,-2.034311295,0.1237849891
-58.07607269,-1.854716778,0.1320257187
-58.03578186,-1.638624668,0.1234963536
-58.06504822,-1.491063118,0.1292716563
-58.09231567,-1.316380501,0.1085464209
-58.09140015,-1.07948494,0.1131666601
-58.10076523,-0.8642234802,0.11100090300000001
-58.10881805,-0.664024353,0.10517221689999999
-58.10662842,-0.4670801163,0.11899356539999999
-58.09883881,-0.22937870030000002,0.1110988185
-58.088481900000005,-0.0380821228,0.1331844479
-58.06126404,0.1623191833,0.1005352959
-58.08452606,0.34645462039999997,0.11420798300000001
-58.06665802,0.5325794220000001,0.1166044399
-58.07821655,0.7393798828,0.1029981747
-58.07319641,0.9230766295999999,0.1178576872
-58.08535004,1.132165909,0.1043115407
-58.0945015,1.345937729,0.1116099954
-58.082382200000005,1.565681458,0.11014933140000001
-58.074386600000004,1.748270035,0.09806039928999999
-58.05887604,1.95255661,0.1025938392
-58.08501053,2.138641357,0.1027735695
-58.09631348,2.3653831480000003,0.1058906242
-58.09645844,2.553848267,0.1001800001
-58.06251526,2.7575454710000002,0.1051006615
-57.84506226,-3.268464327,0.1268100142
-57.87656403,-3.071289301,0.1224276423
-57.87706757,-2.844627857,0.1256069988
-57.88082123,-2.665379524,0.1230158284
-57.87928772,-2.438447714,0.1322042793
-57.87584686,-2.2570014,0.1243686676
-57.87180328,-2.027258396,0.1240726635
-57.90502167,-1.849628448,0.1289863586
-57.88151932,-1.665211201,0.1285707653
-57.85742188,-1.41615963,0.1272071451
-57.86067963,-1.273363113,0.1321166456
-57.87674713,-1.090464592,0.13319455089999999
-57.88192749,-0.8554115295,0.1282628626
-57.88301086,-0.6817474365,0.1302933395
-57.8886795,-0.4900455475,0.1296309084
-57.86975098,-0.2576370239,0.1273266524
-57.84783936,-0.03413581848,0.1282328516
-57.83963776,0.1617221832,0.1112780049
-57.87005234,0.37058258060000004,0.10505999619999999
-57.82420349,0.5487060547,0.1151837558
-57.87296677,0.7365722656,0.09906250982999999
-57.85509491,0.9510383606,0.1139000058
-57.85633469,1.154945374,0.1016266569
-57.88780212,1.33514595,0.102934286
-57.84942627,1.516878128,0.1139719859
-57.9071312,1.761320114,0.09528199583
-57.88539124,1.9567565919999999,0.1040287465
-57.88768768,2.149002075,0.09740181267
-57.90557861,2.323310852,0.09917356819
-57.89820862,2.54574585,0.104610756
-57.89344025,2.740444183,0.1013159901
-57.71228789999999,-3.2687835689999996,0.1207992285
-57.68913651,-3.0531311039999998,0.128843084
-57.71792603,-2.845758677,0.1356083304
-57.66210938,-2.6530838009999997,0.1258599907
-57.73674774,-2.484287739,0.1377950013
-57.663543700000005,-2.239563227,0.132502839
-57.74356842,-2.071805477,0.1438999772
-57.68871307,-1.8683433530000002,0.1320549995
-57.72734833,-1.638474941,0.126850009
-57.70100784,-1.429489136,0.1246918216
-57.65737915,-1.211380959,0.1458750069
-57.726276399999996,-1.122463226,0.1271274984
-57.728534700000004,-0.8513050079000001,0.11734749380000001
-57.63021851,-0.688331604,0.09786332399
-57.70655823,-0.5056171417,0.1175683364
-57.67174149,-0.2857398987,0.1098999903
-57.6712265,-0.12367629999999999,0.1123919934
-57.69132233,0.1496963501,0.09883599728
-57.70585251,0.3733863831,0.1037019938
-57.70683289,0.5426120757999999,0.1136344373
-57.69400024,0.7438354492,0.1015583202
-57.71478653,0.9071235657,0.11248363550000001
-57.68359375,1.134048462,0.11113142220000001
-57.70682526,1.3280792240000001,0.1037428528
-57.72386169,1.5301055909999999,0.11426000300000001
-57.73375702,1.733678818,0.09960667044
-57.71459198,1.963775635,0.1114654467
-57.67543793,2.139293671,0.1071849912
-57.71025085,2.390712738,0.1158774942
-57.67918777,2.587516785,0.09892544895
-57.66017151,2.730178833,0.09704777597999999
-57.44657135,-3.2814671989999997,0.12531210480000002
-57.45978165,-3.081747055,0.12935355310000002
-57.46804047,-2.8731861110000003,0.1352090836
-57.45133209,-2.677145958,0.127639994
-57.44128799,-2.454073191,0.12451799960000001
-57.43987274,-2.262554884,0.113304995
-57.47956848,-2.022427559,0.1393350065
-57.47238922,-1.846374512,0.1110262424
-57.441833499999994,-1.656597614,0.11814399810000001
-57.49003601,-1.480903625,0.1143700108
-57.47431183,-1.318378448,0.1149233207
-57.46649933,-1.066366196,0.1247981936
-57.52358246,-0.911646843,0.09771667421
-57.48316193,-0.7076396942000001,0.09811857343000001
-57.42334747,-0.4982614517,0.0972199887
-57.46414948,-0.26557540890000003,0.09515776484999999
-57.45136261,-0.09991073607999999,0.09631999582
-57.4982338,0.1452922821,0.0957159996
-57.48505402,0.3699035645,0.09634798765000001
-57.51076889,0.5717926025,0.0960066542
-57.56339645,0.7471942901999999,0.09552000462999999
-57.55205154,0.9393863678000001,0.09421001375
-57.50222397,-2.817359924,0.09640248865
-57.46427155,-2.643066406,0.09418284893
-57.44854736,-2.4792099,0.09266749768999999
-57.43095398,-2.250665665,0.09219399095000001
-57.46383286,-2.029100418,0.10253094880000001
-64.47209167,-3.2727603910000003,0.10475832970000001
-64.44525909,-3.04182291,0.1051949859
-64.47940826,-2.88297224,0.09690166265000001
-64.48504639,-2.654729843,0.1059180126
-64.47982025,-2.426119089,0.10743667189999999
-64.48603058,-2.248446465,0.1056611091
-64.45619202,-2.055025578,0.1134722233
-64.477211,-1.848779678,0.1014214158
-64.46549988,-1.621865273,0.11534666269999999
-64.49537659,-1.447630882,0.09966635704
-64.47879028,-1.275930405,0.0837969929
-64.49874878,-1.022100449,0.08508110791000001
-64.51113129,-0.8297557831,0.08180624247
-64.45475769,-0.6509399414,0.08842666447000001
-64.4682312,-0.44401359560000003,0.091018565
-64.47438812,-0.2262496948,0.09144076705
-64.48795319,-0.041109085079999996,0.1000869945
-64.48358154,0.1448822021,0.07795000076
-64.48564148,0.3287353516,0.08879199624
-64.44716644,0.5569915771,0.08517199755
-64.47188568,0.7533531189,0.09314499795
-64.51287842,0.9413375854000001,0.0935709998
-64.49266052,1.168914795,0.08178199083
-64.45768738,1.3519535059999999,0.08213083446000001
-64.48083496,1.551082611,0.08790181577
-64.45755005,1.7448043819999999,0.1070413291
-64.48788452,1.9559936519999999,0.1137299985
-64.45186615,2.169536591,0.09690199047
-64.46601868,2.340578079,0.09377614409
-64.49769592,2.563709259,0.07740916312000001
-64.5045929,2.7641716,0.08162082732
-57.09384537,-3.281205654,0.1242376417
-57.08520889,-3.0752987860000003,0.1280610561
-57.08552551,-2.84498477,0.1234143749
-57.07624817,-2.629473686,0.1258971393
-57.07483673,-2.43191433,0.1288169324
-57.07987595,-2.227053404,0.1248399988
-57.07476807,-2.028196335,0.1387799829
-57.08509064,-1.8908934590000002,0.1201409101
-57.07213211,-1.667868614,0.1266638339
-57.09173584,-1.481920242,0.1264869273
-57.094970700000005,-1.297596931,0.1350991577
-57.1006279,-1.070487976,0.1344889998
-57.07905579,-0.8681430817,0.1379042864
-57.08267212,-0.6655321121,0.1411528587
-57.04528046,-0.4577655792,0.1327262521
-57.01248932,-0.2910404205,0.1374150068
-56.99723053,-0.08564186096000001,0.13663500550000002
-57.12371826,-1.4058094019999998,0.1031719893
-57.0555954,-1.266056061,0.1027766541
-57.10140991,-1.103990555,0.1019360051
-57.06600189,-0.8263320923,0.1013180017
-57.06233978,-0.6616096497,0.10130000859999999
-57.07260895,-0.4769172668,0.1000599936
-57.04929352,-0.28956222530000003,0.09771666676000001
-57.052040100000006,-0.06981658936,0.09915165603000001
-57.07914734,0.1285762787,0.09629400074
-57.09497452,0.3283424377,0.09339623898
-57.08520508,0.5311069489,0.09516000002999998
-57.07378387,0.7585544586,0.09773714095000001
-57.08494568,0.9837532043,0.1053889245
-56.8716507,-3.2694301610000003,0.1354744434
-56.89265442,-3.052552223,0.1376174986
-56.87614822,-2.890009642,0.1360972673
-56.86814117,-2.699602604,0.1371488869
-56.86751175,-2.477713823,0.1374733299
-56.86772156,-2.28050518,0.1376483291
-56.87495804,-2.074309826,0.1379572749
-56.86915588,-1.871661663,0.1379063576
-56.87537384,-1.6572680469999999,0.1380233318
-56.87007141,-1.4274406430000002,0.1387587488
-56.86142731,-1.2372512820000001,0.1384999901
-56.89386368,-1.095476151,0.1382999867
-56.90676117,-0.890583992,0.1377741694
-56.84012222,-0.635228157,0.1385883391
-56.89019394,-0.4729967117,0.1385622174
-56.87194061,-0.2607116699,0.13819299640000002
-56.89435577,-0.03657531738,0.13604570929999998
-56.84236145,0.2150211334,0.13770000640000002
-56.87906647,0.3323020935,0.1384499967
-56.87822723,0.510017395,0.138376683
-56.84967804,0.7295722961,0.12535999720000002
-56.8313179,0.9410800934,0.1141162515
-56.8298111,1.117321014,0.10580357160000001
-56.84697342,1.349687576,0.09794299304
-56.90533066,1.5195617680000002,0.09775272757000002
-56.87537384,1.7507858280000002,0.09837399423
-56.87445831,1.9569606780000002,0.09444800018999999
-56.91508484,2.153465271,0.0952128619
-56.83114624,2.3462619780000002,0.09416600317
-56.91365051,2.572368622,0.09745399653999999
-56.87080002,2.7571411130000003,0.09910500050000001
-56.65566254,-3.2556085589999997,0.13643299039999998
-56.69728851,-3.086624146,0.1401757151
-56.67670059,-2.862500429,0.1366399974
-56.66848755,-2.6493389609999998,0.1377846599
-56.69169617,-2.464534044,0.1380346119
-56.68592834,-2.274568558,0.13848748800000002
-56.66908264,-2.082660675,0.1386733353
-56.67406845,-1.8544464109999999,0.1383650005
-56.70307541,-1.6728520390000001,0.1383018047
-56.67894745,-1.456700325,0.13924899699999999
-56.67672729,-1.257732391,0.1384899914
-56.65028381,-1.053527832,0.1383530051
-56.6895752,-0.8719100952,0.1386760026
-56.66836929,-0.6284484863,0.1345333308
-56.66005707,-0.4415397644,0.133274287
-56.69046402,-0.2448558807,0.1347936392
-56.66389465,-0.04745864868,0.12960749859999998
-56.66945648,0.173078537,0.1067468822
-56.67229079999999,0.3513736725,0.11774250119999999
-56.69097519,0.5495452881,0.1281931102
-56.69344711,0.7432727814,0.1173600033
-56.66572189,0.9265575409000001,0.1172799915
-56.66654205,1.119245529,0.1178999916
-56.67494583,1.330938339,0.11618499460000001
-56.65863419,1.537258148,0.10956561570000001
-56.66771698,1.737586975,0.10980399699999999
-56.67210388,1.955280304,0.111850664
-56.68588257,2.122371674,0.1036675051
-56.62944031,2.3765983580000003,0.09791498631000001
-56.67495728,2.53812027,0.09835166483999999
-56.69553375,2.7272148130000002,0.09585999697
-56.47121811,-3.224211216,0.13672333960000002
-56.45365143,-3.0399265289999997,0.1427638382
-56.46395111,-2.865782499,0.1375700086
-56.47348022,-2.65760994,0.1392624974
-56.47032166,-2.452785492,0.1386169195
-56.475135800000004,-2.2553040980000003,0.1390066743
-56.46241379,-2.0534501080000003,0.1393036246
-56.4810257,-1.838868618,0.1389742941
-56.47885895,-1.6607580180000001,0.1393016577
-56.46994781,-1.473263741,0.1360218227
-56.48423767,-1.2702655790000001,0.1389545351
-56.46002579,-1.070457458,0.1245092824
-56.46865845,-0.8232584000000001,0.1237760037
-56.47485352,-0.6741380692,0.1268568784
-56.47177887,-0.49858474729999996,0.1209999993
-56.49674225,-0.2862358093,0.1235824972
-56.48311996,-0.06520462036,0.1209988818
-56.48186874,0.1320209503,0.11681400980000001
-56.46670151,0.3172721863,0.1132784486
-56.49000549,0.5536556243999999,0.12335625289999999
-56.49855042,0.7582702637000001,0.1175487563
-56.49502563,0.9534435272,0.1239793375
-56.50622559,1.1531810759999999,0.1158772707
-56.49391174,1.320661545,0.1087271348
-56.47197342,1.5207996369999999,0.1105568781
-56.46727371,1.733348846,0.1239761487
-56.48311615,1.942966461,0.11194936929999999
-56.49160385,2.138498306,0.112119168
-56.47059631,2.323860168,0.1124549955
-56.477054599999995,2.535758972,0.1274511069
-56.49084473,2.707695007,0.1389640123
-56.26847458,-3.269182205,0.1382358223
-56.26990128,-3.0844280719999997,0.1378500015
-56.27695847,-2.8949079510000004,0.1382620037
-56.2665329,-2.675946474,0.1404073387
-56.26862335,-2.477162361,0.139397487
-56.26070404,-2.2928943630000003,0.1384929866
-56.24977875,-2.0824818609999998,0.1271218657
-56.24120712,-1.8598952290000001,0.1265887469
-56.2557373,-1.658689022,0.1282457858
-56.25846481,-1.428104401,0.1269628555
-56.26382065,-1.280229568,0.1277241707
-56.28076172,-1.090686798,0.126733005
-56.271621700000004,-0.8776340484999999,0.1231588274
-56.29179764,-0.6644668579,0.1232283339
-56.27052689,-0.47370529170000003,0.12733812630000002
-56.26726913,-0.2907619476,0.1135018095
-56.29124451,-0.08457374572999998,0.1375236213
-56.27523804,0.09132766724,0.1132435724
-56.28986359,0.3392829895,0.11494646970000001
-56.29288483,0.5614624023,0.1145679951
-56.33164597,0.7414455414,0.12113144990000001
-56.27635956,0.9308509827,0.13227307800000002
-56.26987457,1.160844803,0.1281937659
-56.28762817,1.308473587,0.1195381731
-56.2911911,1.529153824,0.1220136359
-56.30725098,1.715314865,0.1280176938
-56.28030014,1.943849564,0.1124590859
-56.26991272,2.166484833,0.1145018116
-56.2833786,2.3231239319999997,0.111307852
-56.26818466,2.519565582,0.10601090640000001
-56.30312729,2.714424133,0.1166141108
-56.06717682,-3.2410004139999997,0.1237510517
-56.03957367,-3.060896873,0.1343736351
-56.0790329,-2.844259739,0.1322684884
-56.07296753,-2.643398285,0.1387130618
-56.07236099,-2.4445433619999997,0.1305633336
-56.0802536,-2.283809185,0.1225958318
-56.07120895,-2.0478672980000003,0.1224450022
-56.07489014,-1.855168819,0.1280946732
-56.09101486,-1.648395061,0.1334939897
-56.07144165,-1.4560251240000002,0.12609800699999998
-56.07806396,-1.257136345,0.12700143460000002
-56.08204651,-1.068645477,0.119286418
-56.07994843,-0.870882988,0.1284642816
-56.08110809,-0.6652021408,0.1247684583
-56.07738113,-0.4655723572,0.11826999490000001
-56.06486893,-0.2429466248,0.1209536865
-56.061409,-0.04058074951000001,0.1364099979
-56.08752441,0.1402950287,0.1166009977
-56.06703186,0.32608795170000004,0.1324533373
-56.08062363,0.5199832916,0.1258133352
-56.07213974,0.7421989441,0.12627333400000001
-56.09403992,0.9156150818000001,0.1316800117
-56.07753754,1.106676102,0.1321833134
-56.06194687,1.296096802,0.1316099912
-56.08631897,1.5302047730000001,0.1394469887
-56.07685852,1.786727905,0.1105347052
-56.06944656,1.951221466,0.1097999886
-56.07969666,2.121404648,0.11602167039999998
-56.07848358,2.321548462,0.1156913266
-56.09666061,2.504528046,0.11558999869999999
-56.066574100000004,2.719989777,0.11298865820000001
-55.87169266,-3.235780001,0.1398006678
-55.87416077,-3.069403172,0.1281276345
-55.85839081,-2.8541128639999997,0.1349225044
-55.85815048,-2.668314934,0.1387600005
-55.87569046,-2.490196705,0.1298023015
-55.89699936,-2.284977913,0.1292876899
-55.87791824,-2.051516533,0.130760774
-55.87827301,-1.8367505069999999,0.1334661543
-55.878555299999995,-1.651860237,0.1359238327
-55.89330673,-1.496617317,0.1182688773
-55.87852859,-1.277210236,0.11999312039999999
-55.87693024,-1.076483727,0.1330438405
-55.87514496,-0.8647680283,0.1203237399
-55.90821075,-0.6451940536,0.1364563704
-55.84711838,-0.449754715,0.1301250011
-55.89821243,-0.270368576,0.1323018074
-55.8671875,-0.06684684752999999,0.1370045543
-55.91450882,0.17092514039999998,0.12358376380000001
-55.88576126,0.3275966644,0.1291925013
-55.84841919,0.5393676758,0.1397940069
-55.89268875,0.7717304229999999,0.1341537535
-55.8515625,0.9285182953,0.1393824816
-55.87257004,1.12147522,0.12985999880000001
-55.87771988,1.358066559,0.12465000150000001
-55.85702133,1.527662277,0.1143533364
-55.91407013,1.709947586,0.11984249949999999
-55.88139725,1.96024704,0.1216399968
-55.86421967,2.143102646,0.12053399529999999
-55.88598633,2.341688156,0.11727132650000001
-55.86363983,2.5474548340000003,0.11022888119999999
-55.89441681,2.732017517,0.1185159981
-55.66578674,-3.2385120389999997,0.1376350075
-55.67176437,-3.0630064010000004,0.1295804977
-55.67132187,-2.81808567,0.1340985596
-55.67247009,-2.6590456959999997,0.1398249865
-55.67324066,-2.481474161,0.13220611210000002
-55.6710968,-2.279490471,0.13504332300000002
-55.69414902,-2.071854115,0.1357130706
-55.66350555,-1.901601315,0.13119642439999998
-55.71022034,-1.6784219740000001,0.12135071310000001
-55.68458557,-1.449860573,0.1310237348
-55.66905975,-1.250397682,0.13425286109999998
-55.69680786,-1.064463615,0.128429994
-55.65657425,-0.8202486038,0.13445569570000002
-55.69350052,-0.6787214279000001,0.1335916519
-55.69314575,-0.4497699738,0.1340684593
-55.671173100000004,-0.2505283356,0.1390125006
-55.64793015,-0.06316184997999999,0.1367174983
-55.70646667,0.1147270203,0.1375749856
-55.70092773,0.28269577030000004,0.1391366571
-55.68772507,0.5470409393,0.1294233203
-55.67148972,0.7598266602,0.1284285784
-55.66883087,0.9216041565,0.1230579913
-55.68801117,1.135091782,0.1244872734
-55.70626831,1.360450745,0.1305649877
-55.68287659,1.567754745,0.1188569963
-55.64416504,1.73756218,0.1214329973
-55.67565918,1.918836594,0.11896400900000001
-55.70013428,2.130039215,0.11968142539999999
-55.6710434,2.3563270569999997,0.1122535244
-55.67121124,2.565540314,0.1084262431
-55.68780518,2.759052277,0.1138746142
-55.49055481,-3.262690067,0.1354762465
-55.47115707,-3.0536637310000003,0.1329869926
-55.47285079999999,-2.880120277,0.1398222297
-55.46827698,-2.684936047,0.1285971403
-55.50290298,-2.445222139,0.1349049956
-55.49773407,-2.259350061,0.13124665619999998
-55.46772385,-2.0424366000000003,0.13892214
-55.48377609,-1.851068497,0.138654381
-55.45746613,-1.654531956,0.1351453811
-55.46375656,-1.468951225,0.1314037442
-55.46805573,-1.2783012390000001,0.14006444810000002
-55.4945755,-1.067998886,0.1347199976
-55.49643707,-0.8566236495999999,0.140491426
-55.4693718,-0.6394252777,0.1405522227
-55.47805786,-0.4523429871,0.14061832429999999
-55.47303772,-0.2177772522,0.1395499855
-55.46735382,-0.05234336853,0.136206001
-55.44386673,0.176071167,0.1140899882
-55.50125504,0.3254318237,0.1282578558
-55.49089432,0.524471283,0.1287014186
-55.47838974,0.7074623108,0.1313974857
-55.49332428,0.9313812256,0.1403077692
-55.49085999,1.161931992,0.1265799999
-55.45388794,1.356451035,0.1222655475
-55.46408844,1.546028137,0.11644142869999999
-55.47434998,1.7526741030000001,0.1166923046
-55.48746109,1.936826706,0.1156530008
-55.48308182,2.141805649,0.10592100019999999
-55.49860382,2.341016769,0.1142438501
-55.50638962,2.56262207,0.11902899300000001
-55.45470047,2.737442017,0.1111022979
-55.28527832,-3.2585945130000002,0.1326076388
-55.28456497,-3.051367998,0.13315352800000002
-55.26501846,-2.859297752,0.1403738558
-55.29307175,-2.683206081,0.1351031214
-55.28649139,-2.47475338,0.135669291
-55.27011871,-2.259480715,0.1422560066
-55.24256897,-2.1101994509999997,0.1448524892
-55.27628326,-1.8859615330000001,0.1345700026
-55.32156372,-1.652574539,0.1410450041
-55.27639771,-1.4376659390000002,0.14144180720000002
-55.26137543,-1.239675522,0.14009124039999998
-55.30078888,-1.065786362,0.1401144415
-55.24738693,-0.8879070281999999,0.1407049894
-55.26199341,-0.6596059799,0.1406342983
-55.24762344,-0.4732265472,0.1275566667
-55.29925156,-0.2935113907,0.13048832119999998
-55.27064514,-0.07761001587000001,0.1370844543
-55.26291275,0.1633358002,0.1344174892
-55.28336716,0.3340511322,0.13270333410000001
-55.28366089,0.5178966522,0.13392332199999998
-55.28016281,0.7341461182,0.1295409054
-55.27685547,0.9434089661,0.1240922138
-55.29304504,1.1464824679999999,0.1168974936
-55.28399277,1.34046936,0.1148390919
-55.27296066,1.51309967,0.1146907136
-55.29676437,1.714506149,0.1212847084
-55.27091217,1.9272518159999998,0.1102149934
-55.27717209,2.1393547059999998,0.11796999720000001
-55.27412033,2.3344078059999998,0.1191472709
-55.27692032,2.544090271,0.1143133342
-55.2718544,2.746879578,0.1171236858
-64.36713409,-3.2412269119999997,0.11432997880000001
-64.25132751,-3.106816769,0.1238189936
-64.26316071,-2.919960737,0.1178599969
-64.28277588,-2.7007997039999996,0.1220833287
-64.27325439,-2.48627758,0.10895545779999999
-64.26844788,-2.3035283090000003,0.12175461650000001
-64.29124451,-2.10500288,0.1111079976
-64.29226685,-1.925811291,0.1037149951
-64.28975677,-1.69643116,0.1079335585
-64.25741577,-1.4930772780000001,0.1011699885
-64.28735352,-1.320684433,0.09032599627999999
-64.29277039,-1.1105756759999998,0.0984423086
-64.29410553,-0.9212007523000001,0.08423545212000001
-64.27073669,-0.6974992752,0.08983000367999999
-64.25599670000001,-0.5072841644,0.10024692119999999
-64.26558685,-0.2880010605,0.09103399515
-64.2684021,-0.1169128418,0.1042772755
-64.27568817,0.09210395813,0.0870192349
-64.27049255,0.3005657196,0.08979599923
-64.30343628,0.485212326,0.09448666871
-64.27696991,0.7015666962,0.08675900102
-64.28128052,0.9151248931999999,0.09868583828
-64.28355408,1.1024360659999999,0.09838426857999999
-64.27885437,1.2863025670000001,0.1007810012
-64.29618073,1.50851059,0.09059777110999999
-64.3087616,1.7032413480000002,0.1069036275
-64.2987442,1.906681061,0.08219332248
-64.28615570000001,2.085784912,0.0912957117
-64.27064514,2.278697968,0.07851999253
-64.2640686,2.4933624269999997,0.07414200902000001
-64.27838135,2.677631378,0.07535666227000001
-64.29744720000001,2.8861770630000003,0.07289666682
-55.10217667,-3.262123823,0.1349899918
-55.07640076,-3.056280375,0.1418799907
-55.06185532,-2.82868576,0.1430889964
-55.09413147,-2.66809082,0.1352415383
-55.08900833,-2.4719007019999997,0.1376511157
-55.169487,-2.3471925259999997,0.1523700207
-55.07505798,-2.054507732,0.1507549882
-55.14864731,-1.9361701009999999,0.15281997619999999
-55.01629639,-1.7259521480000002,0.1516899914
-55.16388702,-1.4842758180000002,0.1461950094
-55.07932663,-1.264274597,0.11632798609999999
-55.02838135,-1.0167407990000001,0.10037000480000001
-55.14230728,-0.8429393768000001,0.1247320175
-55.15750504,-0.6561756134000001,0.1012966856
-55.15883255,-0.5454216003,0.1395299882
-55.02965164,-1.886861801,0.09603668004
-55.06976318,-1.664628983,0.10430999099999999
-55.0838089,-1.4265670780000002,0.1137788966
-55.08638382,-1.221405029,0.1147372797
-55.118927,-1.06055069,0.10879333320000001
-55.11872101,-0.8627052306999999,0.1057042778
-55.1339035,-0.6926784515000001,0.1136783287
-55.13558578,-0.5137939453,0.1207849979
-55.09735107,-0.2613048553,0.1125287414
-55.06296921,-0.04831886292,0.10580399630000001
-55.08448029,0.138502121,0.10590999570000001
-55.07371902,0.33696365359999997,0.1008000001
-55.08645248,0.5377082825,0.11342625320000001
-55.06946564,0.7495212554999999,0.1062271446
-55.10713577,0.9969100952,0.1167516634
-54.88422775,-3.2811043260000003,0.13449923689999999
-54.87179565,-3.056992531,0.1368666589
-54.87794113,-2.8815753460000004,0.1357809007
-54.88145065,-2.65379858,0.151154995
-54.96918106,-2.558548212,0.1533700079
-54.83578873,-2.287100792,0.1533239931
-54.87589264,-2.075126648,0.1297300011
-54.83481979,-1.8427257540000002,0.1406487525
-54.9312973,-1.576043129,0.1039750129
-54.87509155,-1.457056999,0.14001749460000001
-54.93977356,-1.234002113,0.1011699885
-54.81589508,-2.574406624,0.10255996880000001
-54.83290482,-2.551525116,0.1011900157
-54.89837646,-2.3517122269999997,0.10132001339999999
-54.87269211,-2.899781227,0.09653666615
-54.85336685,-2.683979034,0.09975248575
-54.90280914,-2.468673706,0.10071249310000001
-54.89155579,-2.304000854,0.10064001380000001
-54.93518066,-2.063018799,0.09879501163999999
-54.79818726,-1.940849304,0.1004199833
-54.86536789,-1.6669311519999999,0.09963665902999999
-54.89006042,-1.473421097,0.1004500017
-54.92978668,-1.3427906040000002,0.1011566743
-54.86516571,-1.0786380770000001,0.1044100076
-54.86609268,-0.8690547943000001,0.1031270027
-54.87365341,-0.6596698760999999,0.1021737382
-54.89517975,-0.46845436100000004,0.1043007672
-54.82888794,-0.2576580048,0.10562799869999999
-54.84529495,0.02320098877,0.1100720018
-54.66832733,-3.241406679,0.1387325078
-54.67734146,-3.0570969580000003,0.14198641480000002
-54.67281342,-2.8475053310000003,0.1445100009
-54.65936661,-2.670461655,0.14210112390000001
-54.64134598,-2.456415176,0.14941075439999998
-54.69029617,-2.310362577,0.12524198
-54.69353104,-2.021523476,0.1169875115
-54.75962067,-1.844791412,0.1287299842
-54.67904663,-1.659937859,0.1429599971
-54.74943924,-1.5279140469999999,0.1533599943
-54.74748611,-1.172930717,0.1514900178
-54.608882900000005,-1.158789635,0.1022299975
-54.68059921,-0.8830251694,0.10202666369999999
-54.67626953,-0.7256689072,0.1019550115
-54.73517227,-0.5612659454,0.1025100201
-54.65480423,-0.1872558594,0.09848998486999999
-54.68336105,0.03479003906000001,0.09300000966
-54.67357254,0.1346035004,0.098231107
-54.73558807,0.3490104675,0.1000949889
-54.59418869,0.5569820404,0.10163997109999999
