x y z
-60.29836273 3.0764725210000003 0.38352525229999995
-60.30016708 3.14435792 0.592056036
-60.29725647 3.203468561 0.7724149227
-60.30868149 3.2715854639999997 0.9742941856
-60.30494308 3.339452744 1.181139469
-60.28876495 3.40690279 1.392653942
-60.29630661 3.469906807 1.584095001
-60.29601288 3.535182238 1.781897545
-60.28087997 3.591418028 1.958920479
-60.304946900000004 3.67112422 2.211080551
-60.28950882 3.7288208010000004 2.390275955
-60.29337311 3.7905683519999998 2.5800409319999997
-60.28822327 3.84739852 2.7499217989999996
-60.29158401 3.9514095780000003 3.0649948119999997
-60.28333282 3.989502907 3.181324005
-60.28490448 4.053119659 3.3777713780000003
-60.28773879999999 4.12143898 3.5865821839999996
-60.28481674 4.192046642 3.7997665410000003
-60.28047943 4.252254009 3.983121872
-60.28378296 4.318075657 4.18696785
-60.28109741 4.381277084 4.379199982
-60.07549286 3.084470272 0.4126685858
-60.07064438 3.1520743369999997 0.6197416782
-60.05615997 3.217596292 0.8161969185
-60.03809738 3.290583134 1.030769825
-60.03906631 3.351165295 1.218599796
-60.0669632 3.418179035 1.426590443
-60.06249237 3.479683876 1.6117429730000001
-60.06537628 3.542657852 1.806043625
-60.070755000000005 3.6005532739999997 1.987955093
-60.05215836 3.680130005 2.237882614
-60.05853653 3.736983061 2.414365768
-60.07135773 3.801271677 2.612636566
-60.06386185 3.854639769 2.773846626
-60.08173752 3.957276583 3.083299637
-60.07184219 4.000974178 3.217773438
-60.08067322 4.06965971 3.4275264739999995
-60.06951141 4.130534172 3.614606857
-60.07878494 4.200919628 3.827112198
-60.08510971 4.260703087 4.009084702
-60.08952332 4.326901913 4.210237503
-60.07820129 4.390844822 4.409151077
-59.87985992 3.0762474539999998 0.3838998079
-59.88562393 3.1433513160000004 0.5901451111
-59.88044739 3.209621668 0.7882454395
-59.87798691 3.276349783 0.9878358841
-59.88075256 3.3425211910000003 1.192595482
-59.88766098 3.405960798 1.38756609
-59.88362503 3.4706118110000004 1.585865021
-59.88091278 3.533554077 1.7809858319999998
-59.88497543 3.585696459 1.9468479159999998
-59.88904953 3.674799919 2.222651482
-59.88524246 3.7272324560000003 2.384578705
-59.884292599999995 3.791868925 2.585981369
-59.88577271 3.847865582 2.76026535
-59.88172531 3.95513916 3.076652527
-59.880268099999995 3.990929842 3.185743332
-59.88624191 4.055542469 3.384992599
-59.88235474 4.122032642 3.59070015
-59.88409042 4.187445641 3.789699554
-59.88142014 4.253491402 3.99007225
-59.88228226 4.318761826 4.191205978
-59.88291931 4.380179405 4.380451202
-59.67464066 3.084205627 0.4076628685
-59.68027878 3.148779392 0.6058573722999999
-59.67353439 3.22182107 0.8227133751000001
-59.67853546 3.2850692269999997 1.0146112440000001
-59.6788826 3.345966339 1.205928326
-59.68107605 3.415068388 1.415672302
-59.67863846 3.478903532 1.6099300380000001
-59.68640137 3.5453751089999996 1.8172454830000002
-59.67237091 3.599060535 1.9860343930000002
-59.69312668 3.68534255 2.252220154
-59.6776619 3.735209942 2.407412529
-59.67495346 3.801680803 2.61674881
-59.68644333 3.851186275 2.772108078
-59.67885971 3.9516737460000004 3.067497253
-59.68138885 3.99995923 3.2153396610000002
-59.68341446 4.064801693 3.416185379
-59.690017700000006 4.127038956 3.609588623
-59.67962265 4.19614172 3.819356918
-59.68187332 4.261264801 4.01599884
-59.67941666 4.325618267 4.214696883999999
-59.67594528 4.389886856 4.412176132
-59.47828674 3.085433483 0.4090621471
-59.47893524 3.15462923 0.6195385456
-59.48410034 3.219101667 0.8154790401
-59.48178864 3.283061504 1.008111954
-59.48743439 3.345734835 1.204354763
-59.47805405 3.411346436 1.4052543640000001
-59.47441864 3.480768919 1.6157608030000001
-59.48986053 3.546241045 1.819787025
-59.48222351 3.598012686 1.981095314
-59.48308563 3.6861150260000004 2.2510080340000003
-59.47945404 3.740795851 2.420660973
-59.48236847 3.80325675 2.617601395
-59.47939301 3.852347851 2.772457123
-59.48117828 3.95377636 3.07477951
-59.47896576 3.998501778 3.212833405
-59.48495483 4.063230515 3.411359787
-59.485050199999996 4.1275110239999995 3.60997963
-59.48579788 4.193906784 3.8137378689999997
-59.47929382 4.2611980439999995 4.019048691
-59.47880173 4.325880051 4.215595245
-59.47755432 4.390776634 4.4155902860000005
-59.27796936 3.0884058480000003 0.4233752489
-59.28661346 3.151268482 0.6134541035000001
-59.28337479 3.2153337000000004 0.8055949211
-59.28559113 3.283003569 1.012026787
-59.27825165 3.3456482889999997 1.209133625
-59.27472687 3.414135218 1.4165091509999999
-59.26926041 3.479036093 1.613033295
-59.28199005 3.545051336 1.8182668690000001
-59.28707123 3.5993411539999998 1.9872026440000001
-59.28227615 3.689296246 2.260519981
-59.28409576 3.741055727 2.4235496519999997
-59.28924561 3.802034855 2.614154816
-59.28684998 3.851162195 2.768428802
-59.28601837 3.9551730160000003 3.078838348
-59.28479004 3.9990334510000003 3.2141914369999998
-59.28072357 4.062821388 3.410732269
-59.28073883 4.128032684 3.612888336
-59.28019714 4.1935820580000005 3.815841675
-59.28190613 4.259662151000001 4.015716553
-59.27694702 4.3238568310000005 4.21222496
-59.28524399 4.389810562 4.414318085
-64.69070435 3.0883691310000003 0.3901515007
-64.68836975 3.154523611 0.5939927101
-64.67902374 3.221951962 0.8013305664
-64.66075134 3.2845432760000004 0.9935903548999999
-64.67016602 3.3465788360000004 1.1844792370000001
-64.6844635 3.41592598 1.398549557
-64.69849396 3.4794003960000004 1.595756531
-64.69049835 3.545175552 1.799827576
-64.68523407 3.60296154 1.982116699
-64.68455505 3.6669931410000003 2.181147575
-64.676651 3.7382407189999998 2.4004459380000003
-64.68812561 3.797888279 2.583707809
-64.67108154 3.845653772 2.733664513
-64.69889832 3.953365564 3.054344177
-64.68927002 3.996217012 3.184959412
-64.69102478 4.062690258 3.387851715
-64.68644714 4.1281433110000005 3.586027145
-64.68661499 4.199274063 3.80232048
-64.68081665 4.262766838 3.99499321
-64.6709671 4.329253197 4.200803757
-64.67036438 4.3911375999999995 4.391088486
-59.08222579999999 3.079458237 0.40135633950000005
-59.07935333 3.14844346 0.6097187996
-59.08268738 3.217900991 0.8159894943000001
-59.07826233 3.284756422 1.019655228
-59.07997894 3.346648216 1.213630199
-59.08875656 3.414022684 1.416947842
-59.08572388 3.4754951000000003 1.604170799
-59.08066559 3.540997505 1.806491852
-59.07891846 3.599494934 1.9877786640000001
-59.09339142 3.6865203380000002 2.254681587
-59.08850098 3.73871994 2.417865753
-59.08367538 3.8020851610000004 2.61371994
-59.08516312 3.8526787760000003 2.77103138
-59.07732773 3.953973055 3.075475693
-59.08312225 3.9991147519999997 3.2148189539999996
-59.08813477 4.06340313 3.4138832089999998
-59.08469391 4.129282951 3.61693573
-59.07577515 4.192304134 3.81003952
-59.08375168 4.260828495 4.018796921
-59.08452606 4.326013088 4.2171497339999995
-59.09069824 4.389444828 4.4144153589999995
-58.88333893 3.072933197 0.3821953535
-58.88189697 3.1378057 0.5791494846
-58.87208557 3.206020594 0.7828872204
-58.88827515 3.272919178 0.9838476181
-58.88542557 3.3384129999999996 1.187984943
-58.879074100000004 3.4023051260000003 1.3825287819999998
-58.89078522 3.4681413169999997 1.582294464
-58.87943649 3.5359833239999996 1.79063797
-58.87693024 3.594445467 1.972304344
-58.87919998 3.676673174 2.226121902
-58.8711319 3.731642723 2.394066811
-58.88443756 3.795271397 2.589794159
-58.88611603 3.8484921460000003 2.759331703
-58.89658356 3.95039916 3.064733505
-58.884552 3.9887597560000003 3.185966492
-58.88602448 4.054764271 3.386787415
-58.88270569 4.118737221 3.585969925
-58.88009644 4.18611002 3.791372299
-58.88625336 4.249733925 3.984706879
-58.89004135 4.3152794839999995 4.183176041
-58.87812424 4.381543159 4.388559341000001
-58.67750549 3.085544348 0.417129755
-58.67968369 3.149440765 0.6158733368
-58.67786789 3.218178511 0.8208806515000001
-58.68034744 3.282805443 1.01666069
-58.67670822 3.345561504 1.210896969
-58.68377686 3.4138407710000003 1.4175190930000001
-58.68937683 3.4809615610000004 1.620529175
-58.67414856 3.541889906 1.809875488
-58.67720795 3.602798939 2.001123428
-58.68341827 3.690335989 2.269498825
-58.68373108 3.740256548 2.420729637
-58.68431091 3.806007385 2.623932838
-58.69269562 3.8554668430000003 2.7753705980000003
-58.67987823 3.9578232769999997 3.085561752
-58.686019900000005 4.001244068 3.2225189210000003
-58.69023132 4.066358566 3.423650742
-58.67950058 4.130229473 3.620103836
-58.68231964 4.195903301 3.8202304839999996
-58.68456268 4.260159492 4.015283585
-58.68253326 4.327789783 4.221124649
-58.68360901 4.391612053 4.419996262
-58.48554229999999 3.0844681260000004 0.41869044299999997
-58.47777557 3.148124695 0.615688324
-58.48254776 3.2187802789999997 0.8255248070000001
-58.47928238 3.282440424 1.0183987620000001
-58.48866653 3.347419739 1.218723297
-58.48218918 3.4119629860000003 1.41426897
-58.48885345 3.4752898219999997 1.60594368
-58.47520065 3.5435271260000003 1.816532135
-58.48693848 3.603731155 2.004034042
-58.49204254 3.687477589 2.259754181
-58.48415756 3.7382128239999997 2.415707588
-58.48028564 3.8031644819999997 2.615686417
-58.48283768 3.850118399 2.760493279
-58.49308014 3.954646111 3.076871872
-58.48575211 4.001060009 3.221786499
-58.48498917 4.06482172 3.41916275
-58.48799133 4.1281805039999995 3.6142406460000003
-58.48668671 4.198572158999999 3.828584671
-58.48411179 4.262317181 4.020809174
-58.48246002 4.325851917 4.215719223
-58.48419571 4.390358925 4.416511536000001
-58.27761841 3.085822344 0.4230661392
-58.27262115 3.150340557 0.6222860813000001
-58.2844162 3.2183599469999997 0.8248698711
-58.28177643 3.28147006 1.016020298
-58.28591156 3.346984625 1.217019081
-58.28285217 3.414289474 1.42390728
-58.28371429 3.4779338839999996 1.616157532
-58.28636932 3.543640375 1.816809654
-58.28644562 3.605151653 2.008589745
-58.28385162 3.691182613 2.277979851
-58.27898026 3.739643335 2.422899246
-58.27642059 3.804364681 2.621702194
-58.29036713 3.850845814 2.7655611039999997
-58.29599762 3.9570472239999996 3.084640503
-58.28607178 3.99984479 3.219100952
-58.28594208 4.067430496 3.427301407
-58.28889084 4.12790966 3.6129760739999996
-58.27957916 4.1996407510000004 3.8321743010000002
-58.28517914 4.2599701880000005 4.015918732
-58.28097534 4.325933933 4.216592789
-58.28087616 4.388483047 4.411064148
-58.08314514 3.075441837 0.3920906782
-58.08857727 3.1390895839999997 0.5894167423
-58.08574677 3.2073996069999997 0.7949113845999999
-58.08929443 3.2717053889999996 0.9875531197
-58.09247589 3.3386518960000005 1.194913864
-58.098526 3.40608573 1.4001436230000002
-58.10299683 3.4700987339999996 1.592243195
-58.09909439 3.5351111889999998 1.7851257319999998
-58.10478973 3.601780176 1.9937782290000001
-58.10004807 3.672496319 2.221311569
-58.09872055 3.7309889789999997 2.393832207
-58.09610367 3.795146465 2.591840744
-58.10015106 3.849256277 2.755064964
-58.08541107 3.951791048 3.069793701
-58.10108185 3.992387056 3.197458267
-58.10235596 4.056955814 3.394908905
-58.09909821 4.122487068 3.6004409789999996
-58.096267700000006 4.186715603000001 3.794862747
-58.10613632 4.249055386 3.989328384
-58.09307861 4.315624714 4.19238472
-58.07944489 4.382425785 4.401414871
-57.897735600000004 3.0830814839999996 0.4188078642
-57.88923264 3.147537947 0.6169338226
-57.90513611 3.203568935 0.7910621165999999
-57.85780334 3.2486555580000003 0.9754815102
-57.90880585 3.362321377 1.2709455490000001
-57.87615967 3.413759947 1.4314455990000001
-57.87140656 3.4747512339999997 1.61520195
-57.89525223 3.541826248 1.8134756090000002
-57.888080599999995 3.602022648 2.001220703
-57.88730621 3.693340063 2.294688225
-57.88032532 3.7355530260000003 2.4200706480000003
-57.88008881 3.80254674 2.624019623
-57.88752747 3.853569984 2.7788887019999997
-57.89949799 3.955483913 3.083011627
-57.88046265 4.000923633999999 3.230552673
-57.8896637 4.066500187 3.4271869660000003
-57.89437103 4.122123718 3.6007881160000004
-57.87145615 4.192755699 3.819835663
-57.883876799999996 4.256476879 4.00686264
-57.89073563 4.321201801 4.212268829
-57.88830566 4.38297987 4.401325226
-57.68285751 3.0734713080000002 0.3887686729
-57.68058777 3.136999846 0.5863282681
-57.67542648 3.200955153 0.7838582993000001
-57.6760025 3.2520813939999997 0.9603123665000001
-57.68582153 3.339840889 1.2034058570000001
-57.68608856 3.406803608 1.4076642990000001
-57.68524933 3.463270187 1.585562706
-57.67810822 3.532980442 1.7935066219999998
-57.6775589 3.5928814410000003 1.9798345569999998
-57.6413765 3.6627662180000002 2.193744659
-57.67683029 3.729545355 2.401464462
-57.65671539 3.790014029 2.585436821
-57.66445923 3.849588633 2.766440392
-57.66448975 3.9522182939999997 3.073469162
-57.65685654 3.993177891 3.199586868
-57.659988399999996 4.057293892 3.3981323239999996
-57.66574097 4.117640972 3.5856990810000005
-57.67494202 4.179179192 3.775894165
-57.68037415 4.253629684 3.9982185360000004
-57.67607498 4.3125357630000005 4.177974701
-57.68629456 4.392257214 4.424411774
-57.46324539 3.08740592 0.42712914939999996
-57.45833588 3.15000701 0.6207356453
-57.45265198 3.215355396 0.8191421031999999
-57.45684814 3.282756567 1.0260510440000001
-57.465454099999995 3.3468465810000003 1.221321106
-57.46430969 3.41261673 1.422343254
-57.47753906 3.4769048689999997 1.6171464919999998
-57.47317886 3.541425943 1.816477776
-57.48503113 3.6103758810000004 2.030153275
-57.49710083 3.677623749 2.23111248
-57.47465515 3.740677595 2.430757523
-57.47921753 3.8033907410000003 2.627725601
-57.49010468 3.851396561 2.776939392
-57.48851776 3.9547588830000002 3.086874008
-57.48287582 3.9990203380000002 3.220445633
-57.48176575 4.066418648 3.4248828889999996
-57.48124313 4.129473686 3.6190605160000002
-57.47860336 4.192209244 3.8127708439999997
-57.49565887 4.263800621000001 4.025577545
-57.49986267 4.326987267 4.215749741000001
-57.49465179 4.402758121000001 4.448749542
-57.28960419 3.084400415 0.42369985579999997
-57.29330063 3.147546768 0.6138923168
-57.29095459 3.2164118289999997 0.8237681389
-57.30183792 3.2832729819999997 1.030923367
-57.29379654 3.345716715 1.222874641
-57.27783585 3.4103908539999996 1.4188723559999998
-57.28029633 3.4793868060000004 1.626720428
-57.28405762 3.53987956 1.815769196
-57.2835083 3.6077082160000002 2.029260635
-57.27386475 3.666640043 2.213608742
-57.28449249 3.738834858 2.4325037
-57.28364563 3.7995488639999997 2.621608734
-57.289607999999994 3.848283768 2.7715644839999998
-57.26695633 3.954702377 3.087907791
-57.27592087 3.9987001419999997 3.2206878660000005
-57.27653503 4.063912392 3.4222106930000002
-57.27877045 4.128602028 3.621517181
-57.27954865 4.190165997 3.8082580569999998
-57.26313019 4.26147604 4.02040863
-57.27107239 4.323660374 4.210319519
-57.26869202 4.392931461 4.4182186130000005
-64.50968933 3.09275794 0.4070771933
-64.50305176 3.159447908 0.6107039452
-64.49510193 3.221794128 0.8043894768000001
-64.49596405 3.2868442539999996 1.006817818
-64.48138428 3.347246647 1.1943726540000001
-64.47945404 3.4135801789999998 1.397021294
-64.46027374 3.478221655 1.596785545
-64.46808624 3.542700768 1.7971687319999998
-64.48770142 3.6100137230000002 2.0047845840000003
-64.50895691 3.66557765 2.177625656
-64.49497986 3.741636515 2.413803101
-64.50127411 3.801868916 2.598608971
-64.4803009 3.845018387 2.7343130110000002
-64.46764374 3.957074165 3.0662651060000004
-64.48864746 3.997871637 3.19389534
-64.47698975 4.064351082 3.398286819
-64.47674561 4.129499912 3.59614563
-64.47705078 4.200131893 3.809453964
-64.48445129 4.260151863 3.9913291930000003
-64.48429871 4.330030918 4.204576492
-64.48138428 4.3936662669999995 4.399116516
-57.07136917 3.0767488480000003 0.4065358639
-57.07706451 3.141997576 0.6034762859
-57.07849121 3.2078900339999996 0.8005321026000001
-57.08063507 3.27203393 0.9961280823
-57.06550598 3.337029457 1.199653625
-57.06169128 3.4015738960000004 1.3945007319999998
-57.09371948 3.467424393 1.591538429
-57.09812546 3.5326972010000004 1.7937412259999999
-57.1015625 3.6015167239999997 2.017348289
-57.07775116 3.655327082 2.183141708
-57.085289 3.7319226260000002 2.413903236
-57.08804321 3.796408415 2.613049507
-57.08812714 3.846126318 2.767177582
-57.09931183 3.946894646 3.064170837
-57.09901428 3.992104292 3.200515747
-57.09966278 4.056677818 3.399770737
-57.09233856 4.119285583 3.5975131989999998
-57.07260513 4.183267117 3.7974929810000004
-57.09489441 4.25079298 3.995433807
-57.08584595 4.321427345 4.204750061
-57.07661057 4.3878364560000005 4.402118683
-56.87648773 3.080810547 0.41967988009999996
-56.88578415 3.147447586 0.6219322681
-56.891716 3.213987827 0.8207616806
-56.89430618 3.2821886539999996 1.0279684070000001
-56.89429092 3.345620155 1.225202084
-56.89925766 3.413259983 1.4281125069999998
-56.89887619 3.4791810510000003 1.6277313230000001
-56.90189743 3.53224206 1.801176071
-56.913776399999996 3.58792448 1.993770599
-56.87811279 3.6864402289999996 2.277143478
-56.88820267 3.73793745 2.4356021880000003
-56.87744141 3.798970222 2.621575356
-56.85401154 3.851976871 2.779220581
-56.87801743 3.94724369 3.084363937
-56.88614655 3.99302721 3.228536606
-56.87485504 4.06741333 3.4401683810000003
-56.8718338 4.12899065 3.629922867
-56.865448 4.195133209 3.832250595
-56.87855911 4.254447937 4.0171890260000005
-56.88004303 4.321908951 4.221879959
-56.88067627 4.397081375 4.433216095
-56.7000618 3.07813549 0.4168972969
-56.68180466 3.1466822619999997 0.6219995022
-56.65032196 3.2163267139999996 0.8313283920000001
-56.65211487 3.2824528219999998 1.03514719
-56.67425537 3.347622395 1.234659195
-56.65962601 3.414005518 1.433642387
-56.65948486 3.477019072 1.622103691
-56.65932465 3.543493986 1.826284409
-56.62361526 3.588427067 1.978413582
-56.69948578 3.678029299 2.2539196009999998
-56.701828000000006 3.7408747669999998 2.443786621
-56.69264984 3.80176878 2.635397911
-56.69983673 3.84786272 2.772752762
-56.69823074 3.937713861 3.081054688
-56.68943787 3.9940190319999997 3.2324466710000004
-56.70175934 4.066565037 3.43665123
-56.6968689 4.127586365 3.624389648
-56.67801666 4.200985909 3.842693329
-56.68818665 4.263194561000001 4.0291366580000005
-56.66143799 4.327129364 4.225107193
-56.66326141 4.397530079 4.435102463
-56.47143173 3.077802181 0.417396307
-56.47822189 3.1438272 0.6163542271
-56.48758698 3.213863134 0.8268005848000001
-56.49546814 3.279529333 1.026465893
-56.49631882 3.344480515 1.227368355
-56.49067307 3.4044840339999998 1.4076175690000001
-56.50077438 3.477284193 1.622665405
-56.53088760000001 3.5415947439999997 1.823732376
-56.48551941 3.596873522 2.0063428880000003
-56.47415543 3.663194895 2.248222351
-56.47865295 3.7213926319999997 2.413412094
-56.46235275 3.796592712 2.63020134
-56.47782898 3.842457056 2.7570381160000004
-56.46293259 3.948298931 3.081138611
-56.46442795 3.9977142810000004 3.2267608639999996
-56.46459961 4.064235687 3.4239025119999997
-56.47367859 4.13218832 3.630613327
-56.47717285 4.19916153 3.833230972
-56.47651291 4.262717724 4.026315689
-56.47943878 4.3240675930000005 4.211984633999999
-56.48001862 4.394608021 4.42159462
-56.29309464 3.0836265089999997 0.43684339520000004
-56.27870941 3.148267031 0.6302886009
-56.27813339 3.21214962 0.8203816414
-56.2755127 3.2810816760000003 1.030966282
-56.26337814 3.3490366939999996 1.243565083
-56.26390076 3.411588907 1.435767174
-56.26672363 3.475932121 1.6313285830000002
-56.26931 3.5347886089999996 1.824682236
-56.27746201 3.599351883 2.025508881
-56.28001022 3.66818428 2.249047279
-56.27923584 3.7345063689999995 2.432341576
-56.28120422 3.799897432 2.628722191
-56.29606628 3.84766078 2.7684021
-56.28331375 3.953969002 3.086414337
-56.29668045 3.9993872639999997 3.227796555
-56.28262329 4.0653624530000005 3.4284820560000004
-56.28614044 4.132445812 3.631565094
-56.27975464 4.202929974 3.843708038
-56.27716446 4.266432285 4.0371418
-56.28397751 4.32702446 4.21963501
-56.27066039999999 4.398818493 4.432592392
-56.06872177 3.083509207 0.43225753310000004
-56.07509232 3.14834857 0.6306152344
-56.08056641 3.2165045739999996 0.8304440975
-56.07774734 3.2809307580000002 1.028680325
-56.08069611 3.347652674 1.238843918
-56.08090973 3.4063301089999998 1.423689365
-56.08546066 3.473551035 1.616644859
-56.08115768 3.537302494 1.817030907
-56.08770752 3.6010074619999997 2.012218475
-56.09938812 3.6791095730000003 2.263362885
-56.08895874 3.7365224360000004 2.425361633
-56.08220673 3.79918623 2.616156578
-56.08046341 3.852623463 2.772050858
-56.0921402 3.951921463 3.080617905
-56.08397293 3.998693943 3.2238311769999997
-56.08607483 4.063581944 3.4227390289999997
-56.09072113 4.129552363999999 3.624938965
-56.08280182 4.19701004 3.826494217
-56.08129883 4.2606749530000005 4.020702362
-56.07894897 4.329383373 4.2261257169999995
-56.0782814 4.395848751 4.421510696
-55.883331299999995 3.082466125 0.42608857149999996
-55.87978363 3.147963285 0.6257572174
-55.90533447 3.213559389 0.8233094215000001
-55.89983368 3.280398846 1.026654243
-55.90216064 3.3454658989999997 1.2351908679999999
-55.90591812 3.4045000080000003 1.425993443
-55.8864975 3.4740052219999997 1.624197006
-55.88431931 3.5385665889999998 1.8211498259999999
-55.89069748 3.605620384 2.025422096
-55.89003754 3.678559303 2.254357338
-55.88758087 3.736347437 2.428015709
-55.86511993 3.803910732 2.633896828
-55.88072205 3.854580641 2.7831249239999996
-55.8662796 3.954614878 3.092515945
-55.872715 3.998772621 3.2247581480000003
-55.87516022 4.066301346 3.433677673
-55.88288116 4.130214691 3.629369736
-55.88539124 4.198500633 3.833028793
-55.87981033 4.264257908 4.028297424
-55.87815475 4.32941103 4.224317551
-55.8758812 4.399430752 4.428649902
-55.66824722 3.0805740360000002 0.4205547571
-55.64923859 3.1475648880000002 0.6289527415999999
-55.65765381 3.2124650480000003 0.8225643635
-55.67404556 3.281499624 1.031306744
-55.66718292 3.344913721 1.2299661640000001
-55.68766403 3.408515692 1.424634933
-55.70585251 3.4757056239999997 1.6236572269999998
-55.69261551 3.539185762 1.8186273569999998
-55.67936325 3.6109788419999997 2.044167519
-55.63451385 3.684703112 2.26663208
-55.69105148 3.739269733 2.440463066
-55.70722961 3.8028438089999996 2.6323070530000003
-55.69562149 3.851408005 2.777650833
-55.69446945 3.957247972 3.1004219060000002
-55.68760681 4.000865459 3.2302932739999997
-55.68238831 4.065886497 3.432193756
-55.68038559 4.129419803999999 3.629339218
-55.68947983 4.199104309 3.8351726530000003
-55.67736435 4.2645096780000005 4.031572342
-55.68136215 4.330587387 4.226640701
-55.68819046 4.39934206 4.430908203
-55.48340607 3.08327961 0.4235236645
-55.48070908 3.1468744280000003 0.6217463017
-55.46901703 3.207702398 0.8105254173
-55.51399612 3.273334265 1.0110006329999999
-55.53668213 3.3418724539999998 1.223385334
-55.4905777 3.412292719 1.4425811769999999
-55.47208405 3.474117517 1.6244373319999998
-55.46670151 3.540579081 1.824238777
-55.47454071 3.599706411 2.006871223
-55.49901199 3.684159517 2.26803112
-55.49064636 3.7408638 2.438913345
-55.47924805 3.8027062419999997 2.627459526
-55.4782486 3.8533127310000004 2.7825059889999997
-55.49160004 3.9552223680000003 3.0958213810000004
-55.48293686 3.998426914 3.2257347110000003
-55.47716141 4.06138134 3.4172306060000004
-55.48503113 4.129654884 3.6252117160000004
-55.48445129 4.196981907 3.829467773
-55.47835541 4.259903431000001 4.01924324
-55.48379517 4.327418327 4.221218109
-55.4802475 4.399163723 4.430250168
-55.29094315 3.080293417 0.4192149639
-55.3026886 3.145671606 0.6212208271
-55.29724884 3.211407185 0.8236386776000001
-55.24763107 3.265014648 0.9959592818999999
-55.26171875 3.3469409939999997 1.234865665
-55.27827835 3.413491249 1.440220356
-55.28108978 3.4738845830000002 1.624651909
-55.27216339 3.5392742160000004 1.825807571
-55.27933884 3.598187685 2.0051708219999997
-55.28306198 3.681742191 2.263936043
-55.28134918 3.7393891810000004 2.440371513
-55.28449631 3.801341772 2.6271562580000003
-55.28196335 3.8510744569999997 2.7790994639999997
-55.28342438 3.952145815 3.088258743
-55.27393723 3.996284008 3.2217617030000003
-55.28566742 4.061610222 3.422592163
-55.27874756 4.1289453510000005 3.6271381380000003
-55.28282166 4.19758749 3.834129333
-55.27816772 4.2591443060000005 4.020223618
-55.28487015 4.329207897 4.22445488
-55.27095413 4.397459507 4.4247112269999995
-64.27593231 3.090735674 0.4019902945
-64.26824951 3.153270721 0.5943393707
-64.27378845 3.217846394 0.7941610813
-64.2624054 3.28410697 1.000178814
-64.26586914 3.345529318 1.191568851
-64.28677368 3.415712357 1.4056200980000002
-64.31671143 3.478070974 1.597120285
-64.31776428 3.5426225660000004 1.800255775
-64.30157471 3.6018772130000003 1.986486435
-64.271698 3.651221275 2.163173676
-64.31005859 3.74286294 2.424723625
-64.295578 3.805887461 2.615114212
-64.27896118 3.8480100630000003 2.744360924
-64.27644348 3.955152988 3.067169189
-64.28146362 4.001169205 3.2092533110000003
-64.27988434 4.066730499 3.4077377319999997
-64.28717804 4.128761292 3.595312119
-64.28276062 4.199615955 3.809038162
-64.28129578 4.26271677 3.997922897
-64.27404785 4.326976776 4.194976807
-64.27864075 4.401509762 4.420354843
-55.0878067 3.082056761 0.4305214882
-55.08888245 3.1426827910000004 0.6188406944
-55.06381989 3.2155935760000003 0.8364582062
-55.0772171 3.2790091039999996 1.0296530720000001
-55.08219528 3.3420093060000005 1.2218174929999999
-55.07939911 3.410322428 1.428991795
-55.07976151 3.472912788 1.623316765
-55.08699036 3.5422346589999996 1.837015152
-55.08277893 3.60004425 2.013991356
-55.07684326 3.683674812 2.271209717
-55.07527542 3.7378389839999997 2.440171242
-55.08181 3.801031113 2.6275482180000003
-55.07981873 3.8510522839999997 2.778231621
-55.083004 3.954145193 3.093915939
-55.08719635 4.000348568 3.232627869
-55.08521271 4.063013553999999 3.426990509
-55.08636856 4.126627445 3.61987114
-55.08638763 4.199725628 3.837465286
-55.08062744 4.264175892 4.031627655
-55.07828903 4.329829693 4.224973679
-55.08079529 4.399652004 4.431354523
-54.87257767 3.0836124419999997 0.4353377819
-54.89519882 3.1478741169999997 0.6361095904999999
-54.88967133 3.2120311260000003 0.8312966824
-54.88399124 3.280848503 1.0343356129999999
-54.87672043 3.345528126 1.233981609
-54.87705231 3.408833027 1.426077366
-54.87871170000001 3.471131563 1.618288994
-54.87967682 3.536102057 1.82207489
-54.90213394 3.598829269 2.013363838
-54.88726807 3.680927992 2.262420654
-54.88406754 3.737844229 2.437696457
-54.89151382 3.802133799 2.629006386
-54.88505936 3.8534913060000004 2.780991554
-54.88000107 3.951902151 3.089956284
-54.88367844 4.000598431 3.233158112
-54.88442612 4.065057278 3.4298954010000005
-54.88398743 4.132080078 3.632436752
-54.88601685 4.201317787 3.840867996
-54.88435364 4.265204906 4.033222198
-54.87941360000001 4.331274509 4.229476929
-54.88857651 4.397929668 4.426671982
-54.67250443 3.0795898439999996 0.4251189232
-54.67884445 3.146618605 0.6309525967
-54.68062592 3.212873459 0.8343319893000001
-54.68370438 3.2784388069999997 1.0282759670000001
-54.68617629999999 3.344498158 1.230588913
-54.69604492 3.4096138480000002 1.4293184280000002
-54.68968964 3.472722292 1.622171402
-54.68243027 3.535405636 1.81972599
-54.67546082 3.5864095689999997 1.983891487
-54.68367004 3.682535648 2.267279625
-54.67506409 3.736696005 2.43029213
-54.67926025 3.8022940160000003 2.626779556
-54.68119812 3.855271578 2.786980629
-54.68109894 3.952952147 3.09131813
-54.68124771 3.999621868 3.23235321
-54.67520905 4.065254211 3.4311504360000002
-54.68711853 4.129989623999999 3.627019882
-54.68263626 4.198126793 3.832670212
-54.68405151 4.2636632919999995 4.029169083
-54.68389893 4.3293738369999994 4.2245883939999995
-54.68441391 4.397901058 4.427507401000001
-54.47996521 3.079140425 0.42772793770000006
-54.49076843 3.1447892189999997 0.6268820763
-54.47305298 3.210577488 0.8238501548999999
-54.48159409 3.2751827239999995 1.019272327
-54.47258377 3.340480804 1.2253890040000002
-54.48786163 3.409368992 1.4302020069999999
-54.47418594 3.474647045 1.6285428999999998
-54.49725342 3.5409796239999998 1.83202076
-54.47455597 3.587587595 1.993244171
-54.49045181 3.683133841 2.271244049
-54.48447418 3.7358217239999996 2.429153442
-54.48679352 3.802649498 2.6329813
-54.48025894 3.8529248239999996 2.777907372
-54.47783279 3.954395294 3.0964317319999997
-54.48266602 3.997234583 3.2244777680000003
-54.48199463 4.064848423 3.430107117
-54.47982407 4.126995087 3.6230316160000005
-54.47727966 4.198055267 3.834037781
-54.47784424 4.261888504 4.026222229
-54.48031235 4.331306458 4.230119705
-54.47771835 4.397604942 4.427444458
-54.27417374 3.079945564 0.43091666700000003
-54.28268433 3.147255182 0.6332924366
-54.28068924 3.215235472 0.8379352093000001
-54.27506256 3.2792496680000003 1.034879208
-54.28436661 3.34439826 1.2368845940000002
-54.29289627 3.406128645 1.423005581
-54.28674316 3.475216627 1.6295471190000002
-54.27959442 3.539690256 1.831863403
-54.26652908 3.590918541 2.005833626
-54.27135086 3.6806969639999996 2.26300621
-54.28448105 3.734031916 2.426115036
-54.27692032 3.803569794 2.638189316
-54.27471924 3.847023487 2.772054672
-54.29268646 3.9552094939999995 3.100179672
-54.29553604 3.997618675 3.23320961
-54.28956985 4.067245483 3.440689087
-54.28267288 4.130144119 3.6310329439999998
-54.28232193 4.199336529 3.838373184
-54.27597046 4.262126446 4.027462006
-54.28577423 4.33289957 4.236009598
-54.29007339 4.398032188 4.428461075
-54.08591843 3.0772182939999997 0.429233551
-54.10041428 3.143688917 0.6248266697
-54.09243011 3.212694645 0.8319063187000001
-54.08795547 3.273014545 1.016139984
-54.08070374 3.342728615 1.235470295
-54.07585907 3.407546043 1.433592796
-54.08485031 3.4732823369999997 1.620804787
-54.07831573 3.541009665 1.8302230830000001
-54.07739639 3.601593494 2.013736725
-54.09395218 3.6776070589999996 2.249696732
-54.08953476 3.7395372389999997 2.439202309
-54.08182144 3.8024063110000004 2.6314945219999997
-54.09861374 3.849997997 2.777365685
-54.09248352 3.95672965 3.102136612
-54.09868622 3.9956867689999997 3.228328705
-54.09785843 4.066627502 3.440496445
-54.09500122 4.128455638999999 3.6292705539999996
-54.08594513 4.198282241999999 3.839393616
-54.09169388 4.2624897960000006 4.027158737
-54.0836525 4.3303017619999995 4.232761383
-54.08986282 4.389192104 4.413614273
-53.87726593 3.0793983939999996 0.4297019243
-53.87974167 3.1421475410000004 0.6236338615
-53.88703537 3.217354536 0.8456301689
-53.89637756 3.28114152 1.0420942309999999
-53.88870621 3.34255743 1.23632288
-53.88957977 3.4065415860000003 1.429100513
-53.87844849 3.4738264080000003 1.627159119
-53.88628006 3.541201115 1.829395294
-53.88677597 3.605098963 2.029680252
-53.90452576 3.67488265 2.240438461
-53.8855629 3.746867895 2.469537735
-53.88064957 3.8066158289999996 2.64644146
-53.88917542 3.852833748 2.7820148469999997
-53.86396027 3.9566056730000003 3.098466873
-53.85668564 3.996186256 3.2305164339999997
-53.86571884 4.067290783 3.4431877139999996
-53.88251495 4.129787445 3.636184692
-53.8844223 4.197431087 3.841913223
-53.89489365 4.261793613 4.034734726
-53.89411926 4.324802876000001 4.221862793000001
-53.87403488 4.393465042 4.431678772
-53.67785645 3.080377817 0.432103157
-53.6781044 3.14507246 0.6262807846
-53.69377136 3.2133119110000004 0.8320107459999999
-53.69358063 3.2789611819999998 1.0344471929999999
-53.68992615 3.339049578 1.2276229859999999
-53.69129562 3.406758785 1.438125134
-53.68423843 3.47808218 1.642459869
-53.70391846 3.540419102 1.833955765
-53.70920944 3.597385645 2.0079422
-53.61616898 3.691124916 2.303858757
-53.66474533 3.74463439 2.464307785
-53.68098831 3.8020992280000003 2.636053085
-53.68101883 3.8521852489999997 2.7845201489999996
-53.6803093 3.956576347 3.1053676610000003
-53.673847200000004 3.9939646719999997 3.2219276430000003
-53.6954689 4.067993164 3.4430446619999997
-53.6954155 4.132662773 3.6407928469999997
-53.67749023 4.200951099 3.84400177
-53.67431259 4.258907318 4.026224136000001
-53.68035507 4.3275365830000005 4.23390007
-53.68587494 4.390572548 4.426088333
-53.45380402 3.0815663339999997 0.4295500517
-53.46615219 3.147974014 0.6329262257
-53.48479843 3.21262455 0.8301172256
-53.49484253 3.277389288 1.029481888
-53.48476410000001 3.341710806 1.2309799190000001
-53.4865036 3.40614295 1.429116249
-53.48232269 3.4690294269999997 1.6168193819999999
-53.44213486 3.5282604689999997 1.7995319369999998
-53.45634842 3.59279418 1.9997997280000002
-53.44709778 3.681329012 2.26223278
-53.48293686 3.738968611 2.444295883
-53.50328827 3.79988265 2.62760067
-53.48823547 3.8508653639999997 2.780514717
-53.49330521 3.9567389489999996 3.1054191589999998
-53.48029327 3.9988915919999997 3.2317333219999997
-53.46916962 4.065290451 3.4300994869999997
-53.49172974 4.129924297 3.638185501
-53.48768997 4.199137211 3.837779999
-53.49433517 4.253033161 4.003751755
-53.49497986 4.324203014 4.222606658999999
-53.50687408 4.392573357 4.431423187
-53.28948975 3.0801393989999997 0.4277874231
-53.28539276 3.149380445 0.6398758888
-53.2907753 3.215301275 0.8399753570999999
-53.29894638 3.277814865 1.03204155
-53.31639862 3.332490206 1.203857422
-53.27653885 3.4041116239999996 1.442605972
-53.29128647 3.470692635 1.648541451
-53.26735687 3.538617373 1.841430664
-53.2791481 3.584275723 1.975420952
-53.27831268 3.674585581 2.25262928
-53.26956558 3.735600233 2.441979408
-53.28230286 3.7979640960000003 2.632813454
-53.2749939 3.8448531630000002 2.783286095
-53.29772949 3.955755711 3.110561371
-53.28929138 3.999911547 3.239253998
-53.29431915 4.0661726 3.4385318760000003
-53.28428268 4.124891281 3.621152878
-53.29619217 4.198257446 3.842554092
-53.29133224 4.250952244 4.003622055
-53.25913620000001 4.327404976 4.25110817
-53.28659058 4.377729893 4.400701523
-64.07666016 3.07814908 0.36905288700000005
-64.0809021 3.1415207389999997 0.5647718906
-64.08078003 3.208993673 0.7708523273000001
-64.09329224 3.273900032 0.9703841209
-64.09594727 3.3386948110000003 1.171414852
-64.07859802 3.4044106010000004 1.372320652
-64.06388855 3.46249485 1.544681549
-64.04708862 3.5368218419999997 1.773459435
-64.06777954 3.591992855 1.9544858930000002
-64.03729248 3.665167332 2.173242569
-64.05184937 3.731363535 2.380865097
-64.05203247 3.793056726 2.571949959
-64.05583954 3.8445274830000002 2.7349042889999997
-64.05471802 3.94393611 3.023469925
-64.07980347 3.988364458 3.1726703639999996
-64.07622528 4.0515918730000005 3.36844635
-64.08583069 4.120568752 3.575878143
-64.09275818 4.186694145 3.77557373
-64.08171082 4.250026226 3.9640388489999996
-64.08085632 4.320950031000001 4.176467896
-64.08561707 4.381968975 4.359220505
-53.07752991 3.0809633730000003 0.4312061071
-53.08454132 3.149034023 0.6413278579999999
-53.10105515 3.206948042 0.8179721832
-53.14710999 3.270490408 1.0208706859999999
-53.08301926 3.3386771680000003 1.2470798490000001
-53.05116272 3.412011385 1.4651117319999998
-53.08353806 3.4720337389999996 1.645804405
-53.07842255 3.5363714689999997 1.838580132
-53.0976181 3.584628105 1.983944893
-53.0835495 3.676598787 2.262665749
-53.08733749 3.7342162130000003 2.442382813
-53.09760666 3.802669525 2.645206451
-53.08852386 3.8489921089999997 2.7847528460000004
-53.06645584 3.956757545 3.102592468
-53.06753539999999 3.998499155 3.2331237789999996
-53.08426666 4.067522049 3.449525833
-53.07845306 4.1285238269999995 3.63741684
-53.08653259 4.201265335 3.8550395969999998
-53.07761002 4.2572827339999995 4.022062302
-53.08769608 4.330315113 4.246217728
-53.09557343 4.37784338 4.422246933
-52.88492584 3.080287933 0.4332997799
-52.897994999999995 3.138764143 0.6167292595
-52.88639832 3.1929471489999997 0.7841665745
-52.81110382 3.298314333 1.0982036590000002
-52.86303329 3.345502853 1.248996258
-52.88491058 3.404754877 1.430202961
-52.87683487 3.470097065 1.6319866180000002
-52.87965393 3.533162832 1.8305988309999999
-52.90169525 3.582829952 1.9819059369999998
-52.88203049 3.6738307480000003 2.252981186
-52.87264633 3.737090111 2.448476791
-52.87714005 3.79660964 2.626267433
-52.89510345 3.845018387 2.77560997
-52.88482285 3.9526154989999998 3.099039078
-52.87973404 3.994419575 3.228916168
-52.89670563 4.064751625 3.435886383
-52.89265823 4.1261820789999994 3.624053955
-52.88634491 4.194825648999999 3.828525543
-52.89587402 4.259736538 4.030488968
-52.8624649 4.321537018 4.219177246
-52.87273026 4.377031326 4.413507462
-52.695831299999995 3.084123135 0.44293463229999996
-52.69193268 3.1412019730000003 0.6308772564
-52.65581131 3.2150859830000003 0.8562731743
-52.68052292 3.279043198 1.040304184
-52.68439865 3.340628147 1.232192993
-52.67592621 3.4073753360000003 1.4382815359999999
-52.67316437 3.473042488 1.6404676440000001
-52.68498993 3.539926767 1.845932961
-52.70087814 3.5878753660000005 1.99984169
-52.67816925 3.674684525 2.254514694
-52.68322754 3.740204334 2.4516325
-52.69191742 3.7980329989999997 2.632026672
-52.68315887 3.8490011689999997 2.781856537
-52.68507767 3.951282263 3.098209381
-52.67631912 3.9956283569999997 3.233348846
-52.68886185 4.062335013999999 3.433174133
-52.67730331 4.12677002 3.6323165889999998
-52.67977524 4.199340343 3.850460052
-52.69147873 4.262184143 4.039136887
-52.69246674 4.327717304 4.239408493
-52.67819595 4.385051727 4.415742873999999
-52.43667984 3.0859222410000005 0.4434193373
-52.4655304 3.149574041 0.6470096111
-52.48331833 3.209803581 0.8327357769
-52.48881149 3.274971962 1.0334281920000001
-52.48151779 3.339594603 1.230478287
-52.48233032 3.4070594310000004 1.43719244
-52.49304199 3.471738577 1.634475708
-52.47994995 3.534867287 1.829101563
-52.47686386 3.586678267 1.989104271
-52.48667145 3.6721167560000003 2.2466258999999997
-52.48163605 3.734538078 2.435125351
-52.47742081 3.801370144 2.640901566
-52.50328445 3.846786737 2.791283607
-52.48644638 3.9510848519999997 3.0913486480000003
-52.49027252 3.9974341389999997 3.23462677
-52.47702789 4.063960552 3.442089081
-52.483856200000005 4.129360676 3.6329078669999997
-52.486892700000006 4.195114136 3.8294563289999997
-52.48373795 4.263614178 4.040458678999999
-52.48069 4.327744007 4.2407073969999995
-52.48239136 4.390033722 4.429674148999999
-52.28197479 3.085523367 0.4407531023
-52.28741074 3.1491580010000004 0.6393847466
-52.28892517 3.2131068710000004 0.8382055759
-52.27137756 3.278789997 1.0417323109999999
-52.26824188 3.3386521339999997 1.226436138
-52.26824188 3.4035592080000003 1.4250693319999999
-52.28152466 3.47193408 1.635745049
-52.29133987 3.53538847 1.831964493
-52.28393173 3.588668585 2.001237869
-52.29724503 3.673908949 2.25453186
-52.29217911 3.736422539 2.4406995769999997
-52.27348328 3.8013098239999996 2.642002106
-52.29977798 3.835246325 2.81095314
-52.28492355 3.936502934 3.079658508
-52.2876358 3.9946744439999997 3.229595184
-52.28069305 4.062101364 3.4344215389999997
-52.28506851 4.133850573999999 3.6462764739999995
-52.27980042 4.197888374 3.84176445
-52.29097366 4.258711338 4.029127121
-52.281017299999995 4.325444221000001 4.235403061
-52.28529739 4.393285275 4.436271667
-52.08496857 3.0801198480000003 0.4282358885
-52.08650208 3.14280057 0.6228983402
-52.08980179 3.2086701389999996 0.8288538456
-52.08209229 3.272494555 1.025100231
-52.08374786 3.338357925 1.230157375
-52.08860016 3.401817322 1.421192169
-52.07277679 3.4695017339999996 1.6228580469999998
-52.06347656 3.536949873 1.826740265
-52.05825043 3.5928916930000003 1.9977960590000001
-52.07777786 3.671039581 2.237678528
-52.08282852 3.732377052 2.420147896
-52.07350922 3.799897671 2.6234035490000003
-52.10538483 3.841810465 2.7708759310000004
-52.09306335 3.936626196 3.073127747
-52.08612823 3.9938356880000003 3.2247047419999997
-52.07777786 4.062633514 3.431436539
-52.07901001 4.127673149 3.630010605
-52.08789825 4.192849159 3.832437515
-52.08782578 4.256476879 4.024610518999999
-52.08901215 4.3228631019999995 4.224578857
-52.08504105 4.387465 4.421916962
-63.89469528 3.0852081780000002 0.3949787617
-63.89827728 3.1521980760000003 0.600673914
-63.88018799 3.219311714 0.8040156364
-63.8848877 3.2833025460000003 1.001557827
-63.88435364 3.3441350460000003 1.189590454
-63.88394165 3.412894249 1.39956665
-63.87071991 3.4778475760000003 1.59650898
-63.87540817 3.5412554739999997 1.794569969
-63.89210892 3.607598305 2.012404442
-63.87944412 3.6715557580000002 2.202813148
-63.88439941 3.7363698480000003 2.4038124080000003
-63.88316727 3.7987604139999998 2.596396446
-63.89250183 3.848555326 2.7509737010000004
-63.893142700000006 3.9477982519999997 3.0494060519999997
-63.87657547 3.998501778 3.2049961089999996
-63.87030029 4.062324047 3.40086937
-63.87518311 4.125759125 3.5926017760000004
-63.88832855 4.198012352 3.80871582
-63.88152313 4.260801792 3.9975585939999996
-63.87732315 4.332257748 4.212125778
-63.89189148 4.392656803 4.391395569
-63.66921234 3.07855916 0.37900424
-63.67733383 3.1440117360000004 0.5779325961999999
-63.67818069 3.207162142 0.7696986198000001
-63.68329239 3.2693285939999996 0.9588317870999999
-63.68605042 3.33685708 1.170146465
-63.68003464 3.4046676160000002 1.378290653
-63.68503189 3.468554735 1.5726613999999999
-63.67900467 3.5345475669999997 1.7742805480000001
-63.67816925 3.589470148 1.947952271
-63.67614746 3.6668615339999997 2.1901597980000003
-63.67731094 3.729161978 2.381304741
-63.67757797 3.793610096 2.579711914
-63.68558121 3.842768669 2.734186172
-63.68174744 3.9434497360000003 3.0335578919999997
-63.68829346 3.989973783 3.1760597230000003
-63.68374252 4.054412842 3.373256683
-63.67913437 4.118657589 3.56870079
-63.68111038 4.190630436 3.7849845889999996
-63.68600082 4.253278732 3.97429657
-63.688175199999996 4.318594933 4.174697876000001
-63.67937851 4.383995533 4.367723465
-63.48360443 3.0893013480000002 0.4083015919
-63.48825073 3.153907776 0.6065313816
-63.48472977 3.21479845 0.793595314
-63.47360611 3.28172493 0.9986510276999999
-63.48134232 3.3468766210000003 1.200168133
-63.48557663 3.413250208 1.4039368630000002
-63.48877335 3.4781460760000003 1.601343155
-63.48715591 3.542281866 1.798352242
-63.49689484 3.601269484 1.9826965330000001
-63.48501968 3.6744594569999998 2.2094316480000002
-63.48178482 3.7361164089999996 2.39915657
-63.49305344 3.802510738 2.607507706
-63.47526932 3.848712444 2.752055168
-63.47722626 3.951232433 3.056991577
-63.48173523 4.000104427 3.207317352
-63.47838593 4.061581135 3.393283844
-63.47815323 4.126977921 3.592626572
-63.47844315 4.199388981 3.81272316
-63.47167969 4.260727882 3.998239517
-63.48515701 4.327552319 4.198347092
-63.479080200000006 4.395684719 4.403282166
-63.27621460000001 3.08478713 0.39802002909999995
-63.28221893 3.1517212389999996 0.6064195633
-63.27351379 3.221168995 0.8159048556999999
-63.28496933 3.284203053 1.006558895
-63.28681564 3.34474802 1.194675922
-63.28274155 3.4147589210000002 1.4098143580000002
-63.28449249 3.477479696 1.600362778
-63.26852798 3.54253006 1.80214119
-63.27732086 3.606012106 2.007428169
-63.291606900000005 3.668028355 2.193193436
-63.2841301 3.735637188 2.4019203190000002
-63.28278351 3.7979879380000003 2.59814167
-63.2723465 3.8508014680000002 2.76008606
-63.28104782 3.9514544010000003 3.061763763
-63.2773056 3.9970278739999996 3.2024230960000004
-63.2882576 4.061981201 3.3996219639999996
-63.28312683 4.129738808 3.6041584010000003
-63.28340149 4.200870037 3.819358826
-63.28208923 4.259449482 3.995567322
-63.27771759 4.325339317 4.192861557
-63.28539276 4.394155979 4.399520873999999
-64.87058258 2.982039452 0.08059614152000001
-64.67058563 2.981959343 0.08111965656
-64.47058105 2.9818789960000003 0.08164316416
-64.27058411 2.981798649 0.0821666792
-64.07058716 2.98171854 0.0826901868
-63.87058639999999 2.981638193 0.08321369439
-63.67058563 2.9815580839999996 0.08373720944
-63.47058868 2.981477737 0.08426071703
-63.27058792 2.981397629 0.08478423208
-63.07059097 2.981317282 0.08530773968000001
-62.87059021 2.981236935 0.08583125472000001
-62.67058945 2.9811568260000003 0.08635476232000001
-62.4705925 2.981076479 0.08687826991
-62.27059174 2.98099637 0.08740178495999999
-62.07059097 2.9809160230000002 0.08792529255
-61.87059402 2.980835915 0.0884488076
-61.67059326 2.980755568 0.08897231519
-61.47059631 2.980675459 0.08949583024
-61.27059555 2.980595112 0.09001933783
-61.07059479 2.980514765 0.09054284542999999
-60.87059784 2.9804346560000003 0.09106636047
-60.67059708 2.980354309 0.09158986807
-60.47060013 2.9802742 0.09211338311
-60.27059937 2.9801938530000003 0.09263689071
-60.070598600000004 2.980113745 0.09316040576
-59.87060165 2.9800333980000002 0.09368391335000001
-59.67060089 2.9799530510000003 0.09420742095000001
-59.47060013 2.979872942 0.09473093599
-59.27060318 2.979792595 0.09525444358999999
-59.07060242 2.9797124860000004 0.09577795862999999
-58.87060547 2.9796321389999996 0.09630146623
-58.67060471 2.9795520310000003 0.09682498127
-58.47060394 2.979471684 0.09734848887
-58.27060699 2.9793913360000004 0.09787199646
-58.07060623 2.9793112280000003 0.09839551151
-57.87060928 2.9792308810000003 0.0989190191
-57.67060852 2.9791507719999997 0.09944253415
-57.47060776 2.979070425 0.09996604174000001
-57.27061081 2.9789903160000004 0.10048955679999999
-57.07061005 2.9789099689999996 0.10101306439999999
-56.87060928 2.9788296219999997 0.10153657199999999
-56.67061234 2.9787495139999995 0.102060087
-56.47061157 2.978669167 0.10258359460000001
-56.27061462 2.9785890580000003 0.1031071097
-56.07061386 2.9785087110000004 0.1036306173
-55.87061310000001 2.9784286019999997 0.10415413230000001
-55.67061615 2.978348255 0.10467763990000001
-55.47061539 2.978268147 0.1052011475
-55.27061844 2.9781877989999996 0.1057246625
-55.07061768 2.9781074519999997 0.1062481701
-54.87061691 2.9780273439999996 0.1067716852
-54.67061996 2.977946997 0.1072951928
-54.4706192 2.9778668880000003 0.1078187078
-54.27061844 2.9777865410000004 0.1083422154
-54.07062149 2.9777064319999997 0.10886573050000001
-53.87062073 2.977626085 0.10938923810000001
-53.67062378 2.9775457380000003 0.10991274570000001
-53.47062302 2.97746563 0.1104362607
-53.27062225 2.9773852830000003 0.1109597683
-53.07062531 2.9773051739999996 0.1114832833
-52.87062454 2.9772248269999997 0.1120067909
-52.67062759 2.977144718 0.112530306
-52.47062683 2.9770643710000004 0.1130538136
-52.27062607 2.9769840239999996 0.1135773212
-52.07062912 2.976903915 0.11410083619999999
-51.87062836 2.976823568 0.11462434380000001
-64.88383484 4.4476637839999995 4.555674076
-64.68383789 4.447583675 4.556197643
-64.48383331 4.447503567 4.55672121
-64.28383636 4.447423458 4.557244301
-64.08383942 4.447342873 4.557767868
-63.88383865 4.4472627639999995 4.558291435
-63.68383789 4.447182655 4.558815002
-63.48384094 4.44710207 4.55933857
-63.28384018 4.447021961 4.559862137
-63.08383942 4.446941853 4.560385704
-62.88384247 4.446861744 4.560909271
-62.68384171 4.446781158 4.561432838
-62.48384476 4.44670105 4.561955929
-62.28384399 4.446620941 4.562479496
-62.08384323 4.446540356 4.563003063
-61.88384628 4.446460247 4.56352663
-61.68384552 4.446380138 4.564050198
-61.48384857 4.44630003 4.564573765
-61.28384781 4.446219444 4.565097332
-61.08384705 4.446139336 4.565620899
-60.883850100000004 4.446059227 4.56614399
-60.68384933 4.445979118 4.566667557
-60.48384857 4.445898533 4.567191124
-60.28385162 4.445818424 4.567714691
-60.08385086 4.445738316 4.568238258
-59.88385391 4.44565773 4.568761826
-59.68385315 4.445577621 4.569285393
-59.48385239 4.445497513 4.56980896
-59.28385544 4.445417404 4.570332527
-59.08385468 4.4453368189999996 4.570855618
-58.88385773 4.44525671 4.571379185
-58.68385696 4.445176601 4.571902752
-58.483856200000005 4.445096016 4.572426319
-58.28385925 4.445015907 4.572949886
-58.08385849 4.444935799 4.573473454
-57.88385773 4.44485569 4.573997021
-57.68386078 4.444775105 4.574520588
-57.48386002 4.444694996 4.575043678
-57.28386307 4.444614887 4.575567245
-57.0838623 4.444534302 4.576090813
-56.88386154 4.444454193 4.57661438
-56.68386459 4.444374084 4.577137947
-56.48386383 4.444293976 4.577661514
-56.28386688 4.44421339 4.578185081
-56.08386612 4.444133282 4.578708649
-55.88386536 4.444053173 4.579232216
-55.68386841 4.443972588 4.579755306
-55.48386765 4.443892479 4.580278873
-55.28386688 4.44381237 4.580802441
-55.08386993 4.443732262 4.5813260080000004
-54.88386917 4.443651676 4.581849575
-54.68387222 4.443571568 4.582373142
-54.48387146 4.443491459 4.582896709
